183901 -418534 2113.81
185690 -417803 2110.12
187509 -417155 2106.85
189304 -416468 2103.37
191455 -416572 2103.9
193610 -416683 2104.46
195996 -417283 2107.49
198222 -417532 2108.74
200232 -417325 2107.7
202401 -417451 2108.34
204476 -417384 2108
206697 -417612 2109.15
208449 -416899 2105.55
210920 -417621 2109.2
212681 -416940 2105.76
214896 -417152 2106.83
216194 -415596 2098.97
218816 -416592 2104
221069 -416873 2105.42
223377 -417251 2107.33
225504 -417288 2107.52
227076 -416307 2102.56
229224 -416388 2102.97
230882 -415588 2098.93
233710 -416887 2105.49
236322 -417784 2110.02
238613 -418101 2111.62
240158 -417117 2106.65
241498 -415797 2099.98
243092 -414934 2095.62
244697 -414103 2091.43
247402 -415132 2096.63
250020 -416000 2101.01
252289 -416277 2102.41
254163 -415903 2100.52
256154 -415725 2099.62
258613 -416304 2102.54
260384 -415774 2099.87
261728 -414578 2093.83
263820 -414574 2093.81
266138 -414924 2095.58
269004 -416116 2101.6
271037 -416010 2101.06
273311 -416274 2102.39
275106 -415809 2100.05
276569 -414854 2095.22
278229 -414206 2091.95
280090 -413865 2090.23
282014 -413621 2089
284354 -413986 2090.84
286721 -414385 2092.85
288928 -414549 2093.68
290868 -414330 2092.58
293042 -414444 2093.15
295355 -414753 2094.71
297320 -414572 2093.8
298567 -413401 2087.88
300935 -413786 2089.83
302921 -413644 2089.11
305269 -413994 2090.88
306696 -413101 2086.37
309290 -413780 2089.8
312068 -414694 2094.41
313769 -414175 2091.79
314835 -412830 2085
316418 -412176 2081.69
318231 -411829 2079.94
320154 -411626 2078.92
321785 -411055 2076.04
324152 -411423 2077.89
326232 -411426 2077.91
329235 -412586 2083.77
330220 -411218 2076.86
331586 -410337 2072.41
333520 -410168 2071.56
335919 -410568 2073.58
338469 -411147 2076.5
340729 -411368 2077.62
342681 -411217 2076.85
344479 -410885 2075.18
346255 -410530 2073.38
348976 -411294 2077.24
351209 -411476 2078.16
354012 -412320 2082.42
355934 -412134 2081.48
356986 -410949 2075.5
359175 -411078 2076.15
360599 -410337 2072.41
361788 -409337 2067.36
362263 -407546 2058.31
364476 -407719 2059.19
365126 -406152 2051.27
366439 -405335 2047.15
369058 -405964 2050.32
371593 -406494 2053
372680 -405443 2047.69
374842 -405567 2048.32
378311 -407096 2056.04
380982 -407753 2059.36
383408 -408144 2061.33
385637 -408322 2062.23
388422 -409083 2066.08
390287 -408872 2065.01
391215 -407687 2059.03
392508 -406893 2055.02
393572 -405871 2049.85
394525 -404746 2044.17
396818 -405000 2045.46
398781 -404916 2045.03
400001 -404082 2040.82
400421 -402454 2032.6
401131 -401131 2025.91
401054 -399038 2015.35
403594 -399558 2017.97
404576 -398538 2012.82
407566 -399495 2017.65
409873 -399777 2019.08
411959 -399842 2019.4
414095 -399955 2019.97
416604 -400426 2022.35
418471 -400277 2021.6
420926 -400689 2023.68
420836 -398687 2013.57
425465 -401152 2026.02
426264 -400001 2020.21
423989 -395990 1999.95
421451 -391771 1978.64
426381 -394502 1992.43
428554 -394668 1993.27
430617 -394732 1993.6
431124 -393376 1986.75
434086 -394262 1991.22
437996 -395997 1999.98
440922 -396829 2004.19
443150 -397030 2005.2
441134 -393444 1987.09
439369 -390113 1970.27
441416 -390180 1970.61
0 -0 0
444140 -389114 1965.22
445202 -388326 1961.24
446146 -387443 1956.78
0 -0 0
454371 -391154 1975.53
0 -0 0
0 -0 0
0 -0 0
0 -0 0
0 -0 0
0 -0 0
0 -0 0
0 -0 0
0 -0 0
0 -0 0
0 -0 0
0 -0 0
0 -0 0
0 -0 0
0 -0 0
0 -0 0
0 -0 0
0 -0 0
0 -0 0
0 -0 0
0 -0 0
0 -0 0
0 -0 0
0 -0 0
0 -0 0
-0 -0 0
-506083 -390974 1984.64
-0 -0 0
-507008 -394785 2003.98
-499273 -390305 1981.24
-506318 -397389 2017.2
-507226 -399694 2028.9
-498037 -394029 2000.15
-0 -0 0
-0 -0 0
-496950 -397964 2020.12
-496229 -399009 2025.43
-484778 -391399 1986.8
-487224 -394993 2005.04
-486919 -396376 2012.06
-470460 -384567 1952.12
-0 -0 0
-471375 -388539 1972.28
-482946 -399749 2029.18
-0 -0 0
-477360 -398474 2022.71
-473903 -397272 2016.61
-0 -0 0
-0 -0 0
-457653 -388611 1972.64
-464104 -395794 2009.11
-0 -0 0
-463980 -399144 2026.11
-456956 -394826 2004.19
-450102 -390617 1982.83
-455711 -397235 2016.42
-454081 -397573 2018.14
-443374 -389932 1979.35
-450127 -397646 2018.51
-451624 -400766 2034.34
-451343 -402328 2042.28
-449102 -402150 2041.37
-442070 -397661 2018.58
-0 -0 0
-436618 -396376 2012.06
-443600 -404580 2053.7
-0 -0 0
-444075 -408798 2075.12
-438364 -405435 2058.04
-427928 -397650 2018.53
-426105 -397833 2019.46
-430163 -403534 2048.4
-424294 -399933 2030.12
-422948 -400581 2033.41
-424737 -404218 2051.87
-426455 -407824 2070.17
-423352 -406831 2065.13
-418993 -404616 2053.89
-419258 -406867 2065.31
-415656 -405368 2057.7
-410615 -402444 2042.86
-409957 -403808 2049.79
-410992 -406862 2065.29
-409930 -407859 2070.35
-407796 -407796 2070.03
-406412 -408486 2073.53
-406231 -410398 2083.24
-402104 -408322 2072.7
-399056 -407326 2067.65
-397387 -407736 2069.72
-398622 -411144 2087.02
-394310 -408837 2075.32
-390940 -407488 2068.47
-389209 -407841 2070.26
-389573 -410405 2083.28
-386320 -409167 2076.99
-383030 -407875 2070.43
-380525 -407410 2068.07
-378516 -407474 2068.4
-376855 -407915 2070.63
-373595 -406620 2064.06
-373460 -408732 2074.78
-373611 -411180 2087.21
-371095 -410706 2084.8
-367628 -409167 2076.99
-365864 -409518 2078.77
-365279 -411199 2087.31
-363679 -411751 2090.11
-359985 -409925 2080.84
-358121 -410173 2082.1
-356795 -411044 2086.52
-355462 -411918 2090.95
-352498 -410900 2085.78
-351192 -411814 2090.43
-350078 -412966 2096.27
-348013 -413003 2096.46
-345892 -412974 2096.32
-342829 -411812 2090.42
-341832 -413134 2097.13
-340535 -414107 2102.07
-338739 -414482 2103.97
-336953 -414874 2105.96
-334608 -414577 2104.45
-332384 -414428 2103.7
-330880 -415181 2107.52
-328706 -415096 2107.09
-325468 -413659 2099.79
-322969 -413149 2097.2
-321028 -413350 2098.22
-319199 -413699 2099.99
-316207 -412535 2094.08
-314833 -413481 2098.89
-314007 -415164 2107.43
-311456 -414574 2104.43
-309095 -414229 2102.69
-307023 -414270 2102.9
-305757 -415408 2108.67
-303442 -415126 2107.24
-301417 -415239 2107.81
-297843 -413205 2097.49
-295316 -412604 2094.44
-293623 -413169 2097.31
-293168 -415497 2109.12
-291310 -415855 2110.94
-289068 -415667 2109.99
-286128 -414464 2103.88
-283681 -413964 2101.34
-282142 -414790 2105.53
-280891 -416057 2111.97
-278776 -416052 2111.94
-276973 -416516 2114.29
-274348 -415742 2110.37
-272509 -416157 2112.47
-269613 -414952 2106.35
-267050 -414244 2102.76
-264911 -414187 2102.47
-263906 -415915 2111.25
-262221 -416594 2114.69
-260319 -416933 2116.41
-257919 -416475 2114.09
-256093 -416944 2116.47
-254058 -417079 2117.15
-251879 -416976 2116.63
-249247 -416116 2112.26
-246940 -415787 2110.6
-244722 -415605 2109.67
-242584 -415557 2109.42
-241274 -416939 2116.44
-239246 -417093 2117.22
-237599 -417920 2121.42
-235065 -417187 2117.7
-232056 -415590 2109.6
-228876 -413657 2099.78
-227012 -414087 2101.97
-225969 -416037 2111.86
-224459 -417155 2117.54
-221856 -416244 2112.91
-219324 -415449 2108.88
-217425 -415852 2110.92
-215584 -416373 2113.57
-213719 -416858 2116.03
-211705 -417060 2117.05
-209802 -417485 2119.21
-207526 -417169 2117.61
-205399 -417151 2117.52
-203691 -417991 2121.78
-201896 -418668 2125.22
-200026 -419204 2127.94
-197491 -418341 2123.56
-195135 -417842 2121.03
-192561 -416862 2116.05
-190484 -416949 2116.49
-188286 -416768 2115.57
-186411 -417307 2118.31
-183917 -416456 2113.99
-181629 -416057 2111.96
-179183 -415282 2108.03
-177527 -416343 2113.41
-175518 -416591 2114.68
-173604 -417073 2117.12
-171148 -416250 2112.94
-169248 -416773 2115.6
-167374 -417375 2118.65
-165529 -418067 2122.17
-163591 -418538 2124.56
-161201 -417850 2121.07
-158994 -417625 2119.92
-156489 -416600 2114.72
-154174 -416058 2111.97
-152115 -416204 2112.71
-150014 -416236 2112.87
-148249 -417215 2117.84
-145899 -416553 2114.48
-144046 -417311 2118.33
-141879 -417167 2117.6
-139928 -417665 2120.13
-137551 -416885 2116.17
-135405 -416795 2115.71
-133349 -416980 2116.65
-131131 -416659 2115.02
-129108 -416955 2116.52
-127222 -417713 2120.37
-125275 -418290 2123.3
-123003 -417788 2120.75
-120487 -416421 2113.81
-118305 -416182 2112.6
-116328 -416666 2115.05
-114277 -416901 2116.25
-112304 -417433 2118.95
-110003 -416741 2115.44
-107976 -417085 2117.18
-105788 -416806 2115.77
-103809 -417356 2118.56
-101633 -417119 2117.36
-99508.8 -417090 2117.21
-97258.7 -416521 2114.32
-95221.1 -416857 2116.02
-93054.2 -416629 2114.87
-91025.4 -417023 2116.87
-88815.6 -416587 2114.66
-86905.2 -417569 2119.64
-84830.7 -417791 2120.77
-82849.1 -418494 2124.33
-80743.6 -418592 2124.83
-78628.2 -418642 2125.09
-76423.4 -418206 2122.87
-74048.2 -416786 2115.66
-71226.2 -412693 2094.89
-68802.9 -410732 2084.94
-66613.3 -410088 2081.66
-64358.3 -408986 2076.07
-62185.7 -408353 2072.86
-60031 -407797 2070.03
-57915 -407473 2068.39
-55786.2 -407032 2066.15
-53730 -407108 2066.54
-51837.5 -408479 2073.5
-50028 -410646 2084.5
-48312 -413803 2100.52
-46162.4 -413363 2098.29
-43965.9 -412442 2093.61
-41794.9 -411680 2089.75
-39993.5 -414669 2104.92
-38022.6 -416136 2112.36
-35967.6 -416802 2115.74
-33859.4 -416894 2116.21
-31798.2 -417616 2119.88
-29723.6 -418253 2123.11
-27594.4 -418161 2122.65
-25444 -417706 2120.34
-23332.1 -417858 2121.1
-21206.5 -417768 2120.65
-19127.4 -418678 2125.27
-16975.3 -418017 2121.91
-14860.6 -418219 2122.94
-12698.9 -416947 2116.48
-10594.8 -417434 2118.96
-8459.86 -416648 2114.97
-6346.98 -416785 2115.66
-4221.44 -415812 2110.72
-2113.44 -416348 2113.44
0 -416961 2116.55
2122.79 -418189 2122.79
4245.79 -418211 2122.9
6359.82 -417628 2119.94
8470.03 -417149 2117.51
10591.6 -417307 2118.31
12710.5 -417328 2118.42
14833 -417442 2119
16962.8 -417709 2120.35
19082.9 -417704 2120.32
21244.1 -418508 2124.41
23366.6 -418474 2124.23
25516.1 -418889 2126.34
27618.8 -418531 2124.52
29747.4 -418589 2124.82
31838.8 -418149 2122.59
33888.1 -417247 2118.01
36001.6 -417194 2117.74
38172.7 -417779 2120.71
40252.9 -417359 2118.58
42359.7 -417243 2117.98
44414.7 -416652 2114.99
46621.7 -417476 2119.17
48807.8 -418050 2122.08
50923.3 -417995 2121.8
53012 -417735 2120.48
55107.1 -417542 2119.5
57330.2 -418298 2123.34
59476.1 -418457 2124.15
61596 -418428 2124
63665.7 -418071 2122.19
65757.8 -417880 2121.22
67777.2 -417253 2118.04
69836.9 -416905 2116.27
72050 -417466 2119.12
74219 -417747 2120.54
76386.4 -418004 2121.85
78428.1 -417577 2119.68
80480.8 -417229 2117.92
82672.1 -417600 2119.8
84685.3 -417075 2117.13
86776.4 -416950 2116.5
88654.5 -415832 2110.82
90866.3 -416294 2113.17
93045.5 -416590 2114.67
95384.7 -417573 2119.66
97579.5 -417895 2121.29
99679.4 -417805 2120.84
101802 -417813 2120.88
103786 -417263 2118.09
105856 -417074 2117.13
107841 -416563 2114.53
110075 -417014 2116.82
112393 -417763 2120.62
114453 -417540 2119.49
116621 -417714 2120.37
118631 -417326 2118.41
120771 -417402 2118.79
122786 -417050 2117.01
124802 -416712 2115.29
126861 -416527 2114.35
129080 -416865 2116.07
131345 -417339 2118.47
133613 -417804 2120.83
135532 -417184 2117.68
137628 -417117 2117.35
139719 -417040 2116.96
141946 -417362 2118.59
144019 -417231 2117.92
146214 -417451 2119.04
148200 -417077 2117.14
150227 -416827 2115.88
151831 -415428 2108.77
154098 -415855 2110.94
156346 -416220 2112.79
158768 -417029 2116.9
160536 -416127 2112.32
162347 -415356 2108.41
164616 -415762 2110.47
166867 -416112 2112.25
169225 -416715 2115.31
171175 -416313 2113.27
173884 -417746 2120.54
175711 -417050 2117.01
177575 -416455 2113.99
179593 -416233 2112.86
182420 -417870 2121.17
184594 -417988 2121.77
186341 -417149 2117.51
188039 -416220 2112.79
190166 -416251 2112.95
192388 -416488 2114.15
194416 -416304 2113.22
196472 -416183 2112.6
198510 -416026 2111.81
200481 -415735 2110.33
202776 -416113 2112.25
205067 -416476 2114.09
207069 -416251 2112.95
208987 -415863 2110.98
211525 -416705 2115.25
213826 -417066 2117.09
215765 -416722 2115.34
217327 -415664 2109.97
219655 -416077 2112.07
221805 -416149 2112.43
224190 -416655 2115
226285 -416618 2114.81
227963 -415821 2110.77
230091 -415852 2110.92
232123 -415711 2110.21
234651 -416453 2113.98
236664 -416276 2113.08
238651 -416055 2111.95
240759 -416048 2111.92
242343 -415145 2107.33
244224 -414760 2105.38
246064 -414312 2103.11
248779 -415335 2108.3
250946 -415431 2108.79
252810 -415029 2106.75
254685 -414652 2104.83
257131 -415203 2107.63
259483 -415594 2109.61
261490 -415431 2108.79
263138 -414706 2105.11
265529 -415153 2107.37
267806 -415415 2108.71
270082 -415674 2110.02
271617 -414794 2105.56
273688 -414742 2105.29
276039 -415112 2107.17
277650 -414372 2103.41
279238 -413607 2099.53
281249 -413478 2098.87
283832 -414185 2102.46
286203 -414574 2104.44
288003 -414135 2102.21
289751 -413630 2099.64
291870 -413658 2099.79
293762 -413366 2098.3
295617 -413026 2096.58
297497 -412724 2095.05
298875 -411737 2090.04
301434 -412379 2093.3
303556 -412418 2093.49
305836 -412670 2094.77
307764 -412445 2093.63
310449 -413233 2097.63
313019 -413857 2100.8
314789 -413423 2098.59
316590 -413035 2096.63
318521 -412820 2095.53
320526 -412703 2094.94
322065 -411992 2091.33
323487 -411142 2087.01
324347 -409592 2079.15
326289 -409419 2078.27
328220 -409236 2077.34
330321 -409266 2077.49
332327 -409178 2077.04
335596 -410636 2084.45
338560 -411706 2089.88
340419 -411427 2088.46
341189 -409842 2080.42
343901 -410597 2084.25
346277 -410943 2086
348846 -411512 2088.9
349951 -410360 2083.04
352668 -411098 2086.79
355316 -411749 2090.09
356608 -410830 2085.43
356583 -408412 2073.16
359195 -409026 2076.27
361841 -409671 2079.55
363693 -409415 2078.25
363821 -407231 2067.16
364747 -405961 2060.72
367002 -406176 2061.81
369156 -406278 2062.32
371415 -406493 2063.42
371776 -404641 2054.01
374091 -404922 2055.44
376064 -404834 2055
379854 -406692 2064.43
382679 -407502 2068.54
384747 -407501 2068.53
386782 -407465 2068.35
389431 -408074 2071.44
391881 -408469 2073.45
393703 -408208 2072.12
392955 -405300 2057.36
393570 -403820 2049.85
395427 -403622 2048.84
396772 -402907 2045.22
398743 -402833 2044.84
401394 -403442 2047.93
401961 -401961 2040.41
403091 -401055 2035.81
405754 -401676 2038.96
408880 -402747 2044.4
409551 -401401 2037.57
411325 -401144 2036.26
412362 -400174 2031.34
414342 -400124 2031.09
414416 -398244 2021.54
418056 -399791 2029.4
420242 -399940 2030.15
421122 -398851 2024.62
421980 -397752 2019.05
424745 -398452 2022.6
428140 -399732 2029.1
424062 -394058 2000.29
426355 -394328 2001.67
428276 -394254 2001.29
431144 -395048 2005.32
432485 -394443 2002.25
434026 -394024 2000.12
437267 -395145 2005.81
440218 -395995 2010.13
446700 -400000 2030.46
441934 -393941 1999.7
442302 -392493 1992.35
449880 -397428 2017.4
0 -0 0
444135 -388865 1973.93
446039 -388804 1973.62
450010 -390537 1982.42
451354 -389986 1979.62
450076 -387183 1965.4
0 -0 0
456442 -389260 1975.94
454079 -385576 1957.24
458400 -387575 1967.38
0 -0 0
0 -0 0
0 -0 0
0 -0 0
0 -0 0
0 -0 0
0 -0 0
0 -0 0
0 -0 0
0 -0 0
0 -0 0
0 -0 0
0 -0 0
0 -0 0
0 -0 0
0 -0 0
0 -0 0
0 -0 0
0 -0 0
0 -0 0
0 -0 0
0 -0 0
-0 -0 0
-510138 -392106 2000.54
-0 -0 0
-501949 -388862 1983.99
-498970 -388088 1980.04
-0 -0 0
-506867 -397383 2027.47
-504536 -397145 2026.25
-505841 -399777 2039.68
-511618 -405980 2071.33
-0 -0 0
-502692 -402153 2051.8
-0 -0 0
-0 -0 0
-0 -0 0
-0 -0 0
-0 -0 0
-486706 -399140 2036.43
-475871 -391893 1999.46
-489065 -404458 2063.56
-480197 -398807 2034.73
-483606 -403348 2057.9
-0 -0 0
-0 -0 0
-461802 -390143 1990.53
-464982 -394530 2012.91
-472827 -402931 2055.77
-470279 -402509 2053.62
-0 -0 0
-452247 -390487 1992.28
-458143 -397328 2027.18
-0 -0 0
-453408 -396732 2024.14
-446779 -392684 2003.49
-451369 -398506 2033.19
-454444 -403037 2056.31
-446138 -397468 2027.9
-0 -0 0
-445607 -400638 2044.07
-0 -0 0
-446834 -405461 2068.68
-453088 -413048 2107.39
-0 -0 0
-435904 -401113 2046.5
-435249 -402400 2053.06
-432968 -402189 2051.98
-436160 -407082 2076.95
-428993 -402310 2052.6
-421066 -396774 2024.36
-424490 -401933 2050.68
-425809 -405138 2067.03
-425326 -406654 2074.76
-423662 -407048 2076.78
-421369 -406839 2075.71
-417926 -405512 2068.94
-413926 -403630 2059.34
-412101 -403859 2060.5
-411939 -405729 2070.05
-410787 -406637 2074.68
-406728 -404664 2064.61
-408006 -408006 2081.66
-407507 -409596 2089.78
-404168 -408335 2083.34
-398899 -405100 2066.83
-398064 -406357 2073.25
-398934 -409377 2088.66
-399826 -412452 2104.35
-394080 -408676 2085.08
-390626 -407249 2077.8
-388523 -407222 2077.66
-388306 -409183 2087.67
-386141 -409101 2087.25
-382952 -407928 2081.26
-381298 -408385 2083.6
-380682 -409965 2091.66
-379987 -411477 2099.37
-376391 -409848 2091.06
-374459 -410022 2091.95
-372448 -410111 2092.4
-369045 -408660 2085
-367278 -409015 2086.81
-366205 -410150 2092.6
-365204 -411379 2098.87
-363657 -412005 2102.06
-361958 -412464 2104.41
-359660 -412242 2103.27
-357122 -411741 2100.72
-353887 -410425 2094
-351794 -410427 2094.01
-349713 -410441 2094.09
-348267 -411207 2098
-346680 -411814 2101.09
-345327 -412708 2105.65
-343578 -413136 2107.84
-341872 -413622 2110.32
-339592 -413417 2109.27
-336743 -412510 2104.64
-335360 -413400 2109.18
-333028 -413123 2107.77
-331732 -414136 2112.94
-329389 -413848 2111.47
-326958 -413444 2109.41
-324255 -412688 2105.55
-322390 -412996 2107.12
-319523 -412017 2102.13
-316966 -411427 2099.11
-316002 -412910 2106.68
-315232 -414667 2115.65
-313376 -415011 2117.4
-310476 -413967 2112.08
-308497 -414146 2112.99
-306533 -414348 2114.02
-304934 -415049 2117.6
-302527 -414652 2115.57
-299536 -413445 2109.41
-296344 -411939 2101.73
-294272 -411981 2101.94
-293589 -413982 2112.15
-292297 -415146 2118.09
-289820 -414633 2115.47
-287332 -414096 2112.74
-285148 -413992 2112.21
-284060 -415491 2119.85
-282501 -416318 2124.07
-280581 -416620 2125.61
-277654 -415422 2119.5
-275785 -415800 2121.43
-273621 -415735 2121.1
-271463 -415677 2120.8
-268223 -413950 2111.99
-266471 -414510 2114.85
-264901 -415365 2119.21
-263506 -416510 2125.05
-261204 -416227 2123.61
-258564 -415398 2119.38
-256793 -415962 2122.26
-254581 -415816 2121.51
-252567 -415992 2122.41
-250167 -415532 2120.06
-247989 -415434 2119.56
-245763 -415255 2118.65
-243794 -415510 2119.95
-242011 -416089 2122.9
-240485 -417125 2128.19
-238556 -417472 2129.96
-235852 -416460 2124.8
-232521 -414311 2113.83
-229257 -412242 2103.28
-227719 -413268 2108.51
-226650 -415171 2118.22
-225491 -416945 2127.27
-223118 -416487 2124.94
-220969 -416441 2124.7
-218714 -416193 2123.43
-216642 -416292 2123.94
-214373 -416012 2122.51
-212457 -416415 2124.57
-210242 -416236 2123.65
-207862 -415725 2121.04
-206082 -416413 2124.56
-204288 -417089 2128
-202759 -418324 2134.31
-200273 -417591 2130.57
-198024 -417340 2129.29
-196078 -417730 2131.28
-193796 -417406 2129.62
-191376 -416773 2126.4
-188663 -415483 2119.81
-186715 -415865 2121.76
-184831 -416402 2124.5
-182693 -416370 2124.34
-180531 -416282 2123.89
-178500 -416501 2125
-176696 -417257 2128.86
-174334 -416700 2126.02
-172059 -416340 2124.19
-170007 -416516 2125.08
-168125 -417119 2128.16
-166087 -417347 2129.32
-164218 -418010 2132.7
-161831 -417353 2129.35
-159590 -417062 2127.86
-157322 -416691 2125.98
-155167 -416614 2125.58
-153033 -416589 2125.45
-151164 -417297 2129.07
-149090 -417453 2129.86
-146631 -416516 2125.08
-144423 -416278 2123.87
-142584 -417112 2128.12
-140746 -417974 2132.52
-138338 -417142 2128.28
-136157 -416980 2127.45
-133887 -416536 2125.18
-131858 -416840 2126.74
-129653 -416591 2125.46
-127873 -417720 2131.22
-125692 -417553 2130.37
-123693 -417997 2132.64
-121263 -416975 2127.43
-119068 -416739 2126.22
-116867 -416472 2124.86
-114826 -416776 2126.41
-112690 -416740 2126.23
-110445 -416294 2123.95
-108307 -416239 2123.67
-106248 -416492 2124.96
-104199 -416797 2126.52
-102076 -416809 2126.58
-99868.4 -416473 2124.86
-97577 -415763 2121.24
-95661.8 -416660 2125.82
-93550.4 -416724 2126.15
-91490.9 -417028 2127.69
-89144.4 -416007 2122.49
-87259.2 -417142 2128.27
-85272.7 -417836 2131.82
-83193 -418098 2133.15
-80986.1 -417718 2131.21
-78776.9 -417304 2129.1
-76614.3 -417122 2128.18
-74157.5 -415282 2118.79
-71909.3 -414536 2114.98
-69310 -411659 2100.3
-67097.6 -410973 2096.8
-64750.9 -409392 2088.74
-62497.4 -408316 2083.25
-60153.9 -406558 2074.27
-58055.6 -406389 2073.41
-55942.4 -406100 2071.94
-54009.4 -407148 2077.29
-52114.2 -408575 2084.57
-50350.1 -411193 2097.92
-48475.4 -413095 2107.63
-46381.5 -413217 2108.25
-44221 -412730 2105.76
-42214.3 -413701 2110.72
-40304.7 -415775 2121.3
-38373.4 -417844 2131.85
-36183.7 -417176 2128.45
-34028.6 -416851 2126.79
-31858.9 -416289 2123.92
-29791.2 -417077 2127.95
-27650.9 -416891 2126.99
-25540.4 -417160 2128.37
-23459.8 -418011 2132.71
-21329.9 -418065 2132.99
-19209.3 -418335 2134.36
-17060.7 -417986 2132.58
-14945.3 -418469 2135.04
-12767.2 -417061 2127.86
-10637.4 -416986 2127.48
-8486.73 -415850 2121.68
-6363.92 -415776 2121.31
-4235.47 -415076 2117.74
-2119.72 -415466 2119.72
0 -416134 2123.13
2130.28 -417534 2130.28
4264.46 -417918 2132.23
6395.05 -417810 2131.68
8513.81 -417177 2128.45
10643.5 -417226 2128.71
12775.6 -417337 2129.27
14907.2 -417402 2129.6
17035.7 -417375 2129.46
19147.2 -416983 2127.47
21300.8 -417496 2130.08
23453.6 -417900 2132.14
25599.9 -418131 2133.32
27726.3 -418027 2132.79
29863.2 -418085 2133.09
31995.6 -418075 2133.04
34110.7 -417856 2131.92
36215.6 -417545 2130.33
38370.8 -417815 2131.71
40426.3 -417029 2127.7
42543.3 -416925 2127.17
44625.2 -416502 2125.01
46787.5 -416834 2126.71
48933.1 -416995 2127.53
51079.2 -417147 2128.3
53196.5 -417061 2127.86
55330.5 -417107 2128.09
57502.5 -417426 2129.72
59622.3 -417356 2129.37
61705.4 -417044 2127.77
63795.9 -416800 2126.53
65880.6 -416536 2125.18
68013.1 -416580 2125.41
70133.6 -416551 2125.26
72371.7 -417202 2128.58
74526.7 -417349 2129.33
76619 -417148 2128.31
78621.4 -416481 2124.9
80631.9 -415891 2121.89
82949.4 -416874 2126.91
85166.6 -417316 2129.17
87343 -417542 2130.32
89294 -416705 2126.05
91405.4 -416638 2125.71
93521.5 -416596 2125.49
95719.8 -416913 2127.11
97948.6 -417346 2129.32
100074 -417331 2129.24
102174 -417212 2128.63
104220 -416880 2126.94
106351 -416894 2127.01
108403 -416609 2125.55
110673 -417154 2128.33
112957 -417727 2131.26
115234 -418258 2133.97
117265 -417891 2132.1
119302 -417559 2130.4
121162 -416627 2125.65
123199 -416327 2124.12
125119 -415648 2120.65
127502 -416506 2125.03
129599 -416416 2124.57
131981 -417232 2128.73
134218 -417567 2130.44
136317 -417472 2129.96
138414 -417371 2129.44
140608 -417562 2130.42
142934 -418135 2133.34
144969 -417851 2131.89
147013 -417601 2130.62
148920 -416977 2127.44
151007 -416865 2126.86
152741 -415794 2121.4
154925 -415963 2122.26
157007 -415858 2121.72
159499 -416825 2126.66
161554 -416640 2125.72
163479 -416129 2123.11
165633 -416207 2123.5
167726 -416130 2123.11
170083 -416704 2126.04
172368 -417089 2128
174773 -417749 2131.37
176397 -416553 2125.27
178086 -415535 2120.08
180199 -415519 2119.99
183057 -417199 2128.57
185296 -417449 2129.84
187039 -416586 2125.44
188869 -415937 2122.13
191355 -416728 2126.16
193606 -416997 2127.54
195676 -416875 2126.91
197201 -415607 2120.44
199318 -415599 2120.4
201467 -415659 2120.71
203946 -416390 2124.44
205794 -415830 2121.58
207827 -415654 2120.68
209863 -415486 2119.83
212795 -417078 2127.95
214940 -417112 2128.12
216851 -416693 2125.99
218328 -415458 2119.69
220602 -415750 2121.17
222663 -415638 2120.6
224886 -415827 2121.57
226882 -415597 2120.39
229083 -415743 2121.14
231445 -416176 2123.35
233681 -416377 2124.37
235762 -416301 2123.99
237311 -415294 2118.85
239080 -414688 2115.76
241074 -414479 2114.69
243141 -414396 2114.27
245672 -415102 2117.87
247916 -415311 2118.94
250160 -415519 2120
251797 -414725 2115.94
254078 -414994 2117.32
256247 -415077 2117.74
258654 -415543 2120.12
260721 -415458 2119.68
262966 -415657 2120.7
265326 -416031 2122.61
267745 -416493 2124.96
269793 -416373 2124.35
271622 -415922 2122.05
272841 -414549 2115.04
274716 -414187 2113.2
276902 -414296 2113.76
279368 -414819 2116.42
281235 -414452 2114.55
283298 -414376 2114.16
285997 -415225 2118.5
288134 -415251 2118.63
289730 -414504 2114.82
290873 -413124 2107.78
292902 -413012 2107.21
294772 -412680 2105.51
296650 -412364 2103.9
298846 -412491 2104.55
300531 -411917 2101.62
302850 -412213 2103.13
305001 -412278 2103.46
307434 -412720 2105.71
309262 -412349 2103.82
311521 -412555 2104.87
314018 -413070 2107.5
316083 -413015 2107.22
317937 -412686 2105.54
320373 -413113 2107.72
322611 -413280 2108.57
324776 -413352 2108.94
325279 -411320 2098.57
325884 -409444 2089
326376 -407450 2078.83
329471 -408710 2085.26
332706 -410128 2092.49
335509 -410998 2096.93
338101 -411601 2100
339858 -411186 2097.89
341009 -410048 2092.08
341972 -408698 2085.19
345053 -409881 2091.23
348046 -410946 2096.66
349958 -410729 2095.56
350552 -408977 2086.62
353271 -409711 2090.36
355475 -409842 2091.03
357579 -409856 2091.1
358542 -408571 2084.55
360862 -408838 2085.91
363164 -409081 2087.15
365683 -409565 2089.62
365602 -407147 2077.28
367009 -406406 2073.5
369410 -406766 2075.34
372837 -408246 2082.89
373949 -407189 2077.5
374850 -405915 2071
376349 -405299 2067.85
379326 -406273 2072.82
382496 -407442 2078.79
383668 -406481 2073.88
387001 -407807 2080.65
389010 -407733 2080.27
391702 -408370 2083.52
394784 -409406 2088.8
396537 -409059 2087.04
394778 -405113 2066.9
396238 -404493 2063.74
397230 -403405 2058.19
398226 -402331 2052.71
401608 -403668 2059.53
404955 -404955 2066.1
405721 -403662 2059.5
406483 -402377 2052.94
409975 -403794 2060.18
413099 -404837 2065.49
413389 -403105 2056.66
414718 -402400 2053.06
415800 -401462 2048.27
415745 -399441 2037.96
417738 -399399 2037.75
421578 -401113 2046.5
425287 -402687 2054.53
423641 -399201 2036.74
424331 -397937 2030.29
428135 -399592 2038.74
430219 -399634 2038.95
430941 -398417 2032.74
429379 -395109 2015.86
429646 -393508 2007.69
432961 -394699 2013.77
435612 -395278 2016.72
436998 -394708 2013.82
440714 -396239 2021.63
442666 -396176 2021.31
443844 -395425 2017.47
442628 -392557 2002.84
446335 -394062 2010.52
445641 -391685 1998.39
448447 -392391 2002
447608 -389916 1989.37
451728 -391764 1998.8
454342 -392296 2001.51
460493 -395863 2019.71
0 -0 0
451785 -384999 1964.28
453505 -384793 1963.23
463175 -391303 1996.44
453779 -381720 1947.55
0 -0 0
0 -0 0
0 -0 0
0 -0 0
0 -0 0
0 -0 0
0 -0 0
0 -0 0
0 -0 0
0 -0 0
0 -0 0
0 -0 0
0 -0 0
0 -0 0
0 -0 0
0 -0 0
0 -0 0
0 -0 0
0 -0 0
0 -0 0
0 -0 0
0 -0 0
-0 -0 0
-508973 -389214 1995.97
-0 -0 0
-495870 -382193 1959.96
-0 -0 0
-0 -0 0
-0 -0 0
-512431 -401301 2057.96
-503729 -396077 2031.16
-505632 -399183 2047.09
-0 -0 0
-510644 -406431 2084.26
-493799 -394634 2023.76
-0 -0 0
-0 -0 0
-0 -0 0
-499183 -405586 2079.93
-493562 -402697 2065.11
-492287 -403344 2068.43
-485945 -399828 2050.4
-492456 -406902 2086.68
-479658 -398014 2041.1
-0 -0 0
-0 -0 0
-465780 -391496 2007.67
-474540 -400585 2054.28
-469695 -398220 2042.15
-469659 -399928 2050.91
-472040 -403719 2070.35
-0 -0 0
-0 -0 0
-458359 -397245 2037.15
-461427 -401688 2059.94
-461026 -403139 2067.38
-458021 -402316 2063.16
-446483 -393955 2020.28
-444448 -393943 2020.22
-449992 -400678 2054.76
-446369 -399275 2047.56
-453072 -407138 2087.89
-457067 -412630 2116.05
-445893 -404415 2073.92
-441286 -402106 2062.08
-439612 -402462 2063.91
-438218 -403078 2067.07
-438428 -405182 2077.86
-435614 -404498 2074.35
-430505 -401667 2059.83
-428428 -401651 2059.75
-429403 -404510 2074.41
-427460 -404634 2075.05
-427211 -406372 2083.96
-424499 -405771 2080.88
-421504 -404893 2076.38
-417737 -403261 2068.01
-413388 -401048 2056.66
-412522 -402209 2062.61
-411146 -402882 2066.06
-407477 -401303 2057.96
-405411 -401296 2057.93
-403862 -401802 2060.52
-406412 -406412 2084.16
-404796 -406882 2086.57
-402147 -406314 2083.66
-401199 -407468 2089.58
-401580 -409990 2102.51
-398392 -408876 2096.8
-396495 -409082 2097.86
-392460 -407072 2087.55
-391240 -407978 2092.19
-391457 -410398 2104.61
-387829 -408793 2096.37
-384433 -407416 2089.31
-382642 -407733 2090.94
-382851 -410197 2103.58
-381410 -410911 2107.24
-379160 -410757 2106.45
-375513 -409078 2097.84
-372804 -408409 2094.41
-371291 -409049 2097.69
-369582 -409481 2099.9
-367884 -409927 2102.19
-366528 -410764 2106.48
-365155 -411591 2110.72
-363071 -411622 2110.88
-360658 -411277 2109.11
-358510 -411232 2108.88
-355369 -410041 2102.77
-352574 -409238 2098.66
-348782 -407260 2088.51
-347697 -408439 2094.56
-346743 -409788 2101.47
-346004 -411407 2109.78
-343547 -410992 2107.65
-342751 -412570 2115.74
-340205 -412050 2113.08
-337742 -411623 2110.89
-335616 -411605 2110.79
-335013 -413466 2120.34
-333528 -414255 2124.38
-331014 -413768 2121.89
-328801 -413652 2121.29
-326050 -412855 2117.21
-323430 -412214 2113.92
-321145 -411996 2112.8
-318928 -411861 2112.11
-317602 -412882 2117.35
-316495 -414205 2124.13
-314533 -414419 2125.22
-311916 -413766 2121.88
-308879 -412544 2115.61
-307542 -413591 2120.98
-305930 -414280 2124.51
-304026 -414581 2126.06
-300967 -413300 2119.49
-298082 -412241 2114.06
-296030 -412327 2114.5
-295445 -414474 2125.51
-293984 -415412 2130.32
-291473 -414871 2127.54
-288728 -413985 2123
-286545 -413898 2122.56
-284519 -414039 2123.28
-283108 -415083 2128.63
-280656 -414605 2126.18
-278107 -413976 2122.95
-275720 -413579 2120.92
-273698 -413730 2121.69
-271595 -413758 2121.84
-269268 -413442 2120.22
-267247 -413596 2121
-265309 -413882 2122.47
-263265 -414006 2123.11
-261603 -414737 2126.85
-259680 -415062 2128.52
-257867 -415571 2131.13
-255546 -415263 2129.55
-253560 -415498 2130.76
-251494 -415604 2131.3
-248775 -414624 2126.28
-246502 -414379 2125.02
-244159 -414008 2123.12
-242507 -414815 2127.26
-240694 -415357 2130.04
-238725 -415638 2131.48
-236782 -415968 2133.17
-233605 -414117 2123.68
-231216 -413644 2121.25
-229250 -413923 2122.68
-227893 -415319 2129.84
-225780 -415350 2130
-223395 -414876 2127.57
-221356 -415042 2128.42
-219657 -415856 2132.59
-217444 -415701 2131.8
-214958 -415018 2128.3
-212552 -414477 2125.52
-210645 -414907 2127.73
-208589 -415049 2128.46
-207213 -416562 2136.22
-205460 -417340 2140.2
-203449 -417607 2141.57
-200454 -415835 2132.49
-198004 -415169 2129.07
-196130 -415710 2131.85
-194152 -416040 2133.54
-191861 -415698 2131.78
-189177 -414489 2125.59
-187144 -414695 2126.64
-185367 -415478 2130.66
-183426 -415909 2132.87
-181307 -415939 2133.02
-179105 -415778 2132.2
-177189 -416288 2134.81
-175062 -416307 2134.91
-172753 -415888 2132.76
-170261 -415012 2128.27
-168002 -414689 2126.61
-166196 -415489 2130.71
-164543 -416700 2136.92
-162252 -416304 2134.89
-160266 -416693 2136.88
-157905 -416100 2133.85
-155666 -415821 2132.42
-153161 -414811 2127.24
-151417 -415863 2132.63
-149374 -416113 2133.91
-147003 -415444 2130.48
-144905 -415537 2130.96
-143222 -416840 2137.64
-141319 -417532 2141.19
-138982 -416947 2138.19
-136644 -416336 2135.06
-134458 -416180 2134.26
-132202 -415795 2132.28
-130203 -416224 2134.48
-128138 -416448 2135.63
-126078 -416699 2136.92
-123968 -416790 2137.38
-121667 -416231 2134.52
-119562 -416332 2135.04
-117270 -415774 2132.18
-115193 -415976 2133.21
-112847 -415192 2129.19
-110789 -415461 2130.57
-108757 -415835 2132.49
-106763 -416374 2135.25
-104542 -416036 2133.52
-102394 -415978 2133.22
-100288 -416087 2133.78
-98072.2 -415741 2132
-96140.4 -416609 2136.45
-93867.5 -416004 2133.35
-91771.7 -416174 2134.23
-89452.1 -415313 2129.81
-87579.8 -416538 2136.09
-85522.3 -416921 2138.06
-83316.8 -416584 2136.33
-80991.2 -415613 2131.35
-78745.9 -415012 2128.27
-76600 -414917 2127.78
-74389.7 -414457 2125.42
-72114.4 -413597 2121.01
-69794.6 -412422 2114.99
-67377 -410579 2105.53
-64919 -408361 2094.16
-62387.8 -405521 2079.59
-60126.7 -404300 2073.33
-58050.4 -404279 2073.23
-55928.8 -403930 2071.44
-54041.8 -405314 2078.53
-52144 -406724 2085.76
-50599.2 -411118 2108.3
-48664.7 -412592 2115.85
-46577 -412841 2117.14
-44484 -413066 2118.29
-42538.4 -414749 2126.92
-40596.2 -416645 2136.64
-38537.7 -417492 2140.98
-36357.7 -417044 2138.69
-34155 -416264 2134.69
-31994.1 -415924 2132.94
-29904.4 -416525 2136.03
-27734 -416010 2133.39
-25612.2 -416198 2134.35
-23516.7 -416888 2137.88
-21385.5 -417017 2138.55
-19248.1 -417042 2138.68
-17093 -416643 2136.63
-14962.2 -416803 2137.45
-12801.5 -416048 2133.58
-10659.4 -415718 2131.89
-8523.55 -415523 2130.89
-6384.22 -414974 2128.07
-4255.52 -414913 2127.76
-2129.32 -415216 2129.32
0 -415283 2129.66
2132.44 -415826 2132.44
4265.24 -415861 2132.62
6406.35 -416413 2135.45
8542.01 -416423 2135.5
10669.8 -416122 2133.96
12812.3 -416401 2135.39
14944.2 -416302 2134.88
17078 -416277 2134.76
19189.8 -415779 2132.2
21342 -416169 2134.2
23511.3 -416791 2137.39
25652.4 -416852 2137.7
27765.5 -416483 2135.81
29919.3 -416732 2137.09
32061.5 -416799 2137.43
34208.7 -416919 2138.05
36327.7 -416700 2136.92
38502.1 -417106 2139
40575.9 -416437 2135.57
42644.4 -415783 2132.22
44717.9 -415238 2129.43
46902.7 -415729 2131.94
49035.3 -415734 2131.97
51194.4 -415954 2133.1
53311.4 -415829 2132.46
55463.7 -415978 2133.22
57525 -415458 2130.56
59591.3 -415011 2128.26
61676.4 -414720 2126.77
63775.9 -414544 2125.86
65945.2 -414816 2127.26
68177.2 -415455 2130.54
70435.6 -416210 2134.41
72641.4 -416620 2136.51
74719.6 -416295 2134.85
76728.7 -415614 2131.35
78760.8 -415091 2128.67
80865.5 -414968 2128.04
83217.7 -416089 2133.79
85425.8 -416451 2135.64
87576.9 -416524 2136.02
89643.8 -416204 2134.38
91713.6 -415911 2132.88
93913.3 -416207 2134.39
96049.1 -416213 2134.42
98231.3 -416415 2135.46
100239 -415885 2132.74
102387 -415946 2133.06
104465 -415729 2131.94
106703 -416143 2134.07
108706 -415642 2131.5
110969 -416134 2134.02
113251 -416678 2136.81
115554 -417278 2139.89
117593 -416922 2138.06
119635 -416587 2136.34
121511 -415696 2131.77
123620 -415617 2131.37
125565 -415003 2128.22
127894 -415655 2131.57
129938 -415377 2130.14
132234 -415896 2132.8
134510 -416341 2135.08
136858 -416990 2138.41
139012 -417037 2138.65
141228 -417264 2139.82
143406 -417375 2140.39
145442 -417076 2138.85
147349 -416421 2135.49
149246 -415756 2132.08
151349 -415678 2131.68
153335 -415283 2129.66
155595 -415631 2131.44
157565 -415205 2129.26
159868 -415656 2131.57
162004 -415669 2131.63
164025 -415388 2130.19
166314 -415784 2132.23
168236 -415266 2129.57
170590 -415813 2132.38
172718 -415802 2132.32
174830 -415754 2132.07
176676 -415082 2128.63
178462 -414286 2124.54
180675 -414490 2125.59
182950 -414829 2127.33
185024 -414708 2126.71
187033 -414447 2125.37
188948 -413988 2123.01
191530 -414983 2128.12
194037 -415794 2132.28
196442 -416372 2135.24
198192 -415564 2131.09
200065 -415028 2128.35
202174 -414990 2128.15
204443 -415275 2129.62
206391 -414909 2127.74
208336 -414547 2125.88
210682 -414979 2128.1
213507 -416338 2135.07
215851 -416743 2137.14
217410 -415637 2131.47
219082 -414767 2127.01
220918 -414222 2124.22
223185 -414487 2125.57
225045 -413998 2123.07
226927 -413559 2120.82
229315 -414041 2123.29
232108 -415238 2129.43
234636 -415945 2133.05
236466 -415413 2130.33
238032 -414430 2125.28
239776 -413773 2121.91
242047 -414027 2123.22
244467 -414530 2125.8
246985 -415190 2129.18
248851 -414752 2126.94
250565 -414069 2123.43
252367 -413542 2120.73
254875 -414172 2123.96
256866 -413957 2122.86
259104 -414142 2123.8
260937 -413680 2121.44
263570 -414486 2125.57
266346 -415500 2130.77
268924 -416192 2134.32
270736 -415697 2131.78
272289 -414816 2127.26
273771 -413840 2122.25
275442 -413164 2118.79
277173 -412586 2115.83
279834 -413392 2119.96
282674 -414447 2125.37
284574 -414119 2123.69
287090 -414685 2126.59
288922 -414264 2124.43
290737 -413823 2122.17
292230 -412934 2117.61
294006 -412455 2115.15
295718 -411892 2112.27
297490 -411422 2109.86
299961 -411919 2112.4
301914 -411700 2111.28
303744 -411320 2109.33
306242 -411843 2112.01
308328 -411808 2111.84
309927 -411128 2108.35
311805 -410824 2106.79
314998 -412246 2114.08
317256 -412433 2115.04
318515 -411327 2109.37
320819 -411577 2110.65
322753 -411351 2109.49
324971 -411490 2110.2
325794 -409870 2101.9
327336 -409170 2098.31
329554 -409319 2099.07
332154 -409936 2102.24
334766 -410562 2105.45
337742 -411623 2110.89
339712 -411453 2110.02
340889 -410330 2104.26
342566 -409819 2101.63
344457 -409568 2100.35
347524 -410710 2106.21
348791 -409724 2101.15
351104 -409971 2102.42
351732 -408260 2093.64
354777 -409359 2099.27
355217 -407455 2089.51
358389 -408689 2095.84
359837 -407954 2092.07
362052 -408094 2092.79
362533 -406287 2083.53
364356 -405996 2082.03
365818 -405309 2078.51
368139 -405577 2079.88
370462 -405843 2081.25
373749 -407156 2087.98
376196 -407546 2089.98
376855 -406004 2082.07
378710 -405760 2080.82
380766 -405734 2080.69
383415 -406336 2083.78
385445 -406280 2083.49
387050 -405779 2080.92
390698 -407413 2089.3
393555 -408209 2093.38
396243 -408822 2096.52
397099 -407549 2089.99
397364 -405685 2080.44
397807 -404022 2071.91
398538 -402668 2064.96
400575 -402640 2064.82
402844 -402844 2065.87
406989 -404912 2076.47
407561 -403423 2068.84
408908 -402713 2065.19
412317 -404029 2071.95
414141 -403787 2070.7
416094 -403673 2070.12
417491 -403024 2066.79
417150 -400710 2054.93
416733 -398348 2042.81
417428 -397065 2036.23
422040 -399504 2048.74
424667 -400048 2051.53
424695 -398151 2041.8
426559 -397986 2040.95
423700 -393436 2017.62
429916 -397315 2037.51
432481 -397801 2040.01
430859 -394448 2022.81
429882 -391715 2008.79
433609 -393273 2016.78
436505 -394067 2020.86
433938 -389944 1999.72
437273 -391139 2005.84
443222 -394650 2023.85
444105 -393639 2018.66
445701 -393266 2016.75
447050 -392679 2013.74
449319 -392902 2014.88
449783 -391553 2007.96
452379 -392062 2010.57
0 -0 0
458547 -393906 2020.03
459660 -393131 2016.05
456310 -388561 1992.62
0 -0 0
0 -0 0
0 -0 0
0 -0 0
0 -0 0
0 -0 0
0 -0 0
0 -0 0
0 -0 0
0 -0 0
0 -0 0
0 -0 0
0 -0 0
0 -0 0
0 -0 0
0 -0 0
0 -0 0
0 -0 0
0 -0 0
0 -0 0
0 -0 0
0 -0 0
0 -0 0
0 -0 0
0 -0 0
0 -0 0
-0 -0 0
-531036 -404004 2082.5
-0 -0 0
-0 -0 0
-0 -0 0
-0 -0 0
-0 -0 0
-518830 -404229 2083.66
-511846 -400396 2063.9
-509664 -400303 2063.42
-0 -0 0
-494361 -391453 2017.8
-489946 -389547 2007.98
-489311 -390643 2013.62
-0 -0 0
-495368 -398761 2055.47
-0 -0 0
-495794 -402443 2074.45
-479842 -391132 2016.14
-487740 -399247 2057.98
-0 -0 0
-0 -0 0
-0 -0 0
-473564 -394298 2032.46
-472076 -394753 2034.81
-471444 -395932 2040.88
-0 -0 0
-0 -0 0
-462387 -393435 2028.01
-459249 -392486 2023.12
-475467 -408144 2103.84
-466540 -402261 2073.51
-464787 -402539 2074.94
-461046 -401089 2067.47
-0 -0 0
-446299 -391773 2019.45
-448958 -395899 2040.72
-450236 -398839 2055.87
-452723 -402882 2076.71
-452964 -404954 2087.39
-456120 -409663 2111.67
-444819 -401371 2068.92
-443802 -402326 2073.84
-444402 -404761 2086.4
-441273 -403806 2081.48
-439137 -403757 2081.22
-436370 -403123 2077.95
-430763 -399847 2061.07
-432230 -403138 2078.03
-433595 -406364 2094.66
-433228 -407992 2103.05
-430923 -407800 2102.06
-426858 -405934 2092.44
-420095 -401470 2069.43
-416783 -400277 2063.28
-417299 -402766 2076.11
-409835 -397540 2049.18
-410568 -400252 2063.16
-410706 -402409 2074.27
-404756 -398592 2054.6
-405029 -400896 2066.47
-408511 -406416 2094.93
-407430 -407430 2100.15
-406676 -408783 2107.13
-406056 -410286 2114.88
-402630 -408954 2108.01
-400261 -408688 2106.64
-396259 -406742 2096.61
-395349 -407967 2102.92
-393027 -407739 2101.75
-390393 -407184 2098.89
-388770 -407683 2101.46
-384845 -405760 2091.55
-383822 -406893 2097.39
-383788 -409092 2108.72
-382931 -410434 2115.64
-380706 -410316 2115.03
-377531 -409168 2109.11
-374769 -408456 2105.44
-372561 -408344 2104.87
-371379 -409361 2110.11
-369937 -410102 2113.93
-368053 -410358 2115.25
-365720 -410114 2113.99
-364474 -411093 2119.04
-361935 -410616 2116.58
-359654 -410428 2115.61
-356846 -409634 2111.51
-353596 -408320 2104.74
-349983 -406567 2095.71
-348482 -407262 2099.29
-347952 -409107 2108.8
-347425 -410978 2118.44
-345834 -411606 2121.68
-343841 -411761 2122.48
-341075 -410985 2118.48
-338508 -410441 2115.68
-336184 -410187 2114.37
-336407 -413057 2129.16
-336046 -415242 2140.42
-334021 -415385 2141.16
-331116 -414430 2136.23
-329402 -414961 2138.97
-325828 -413142 2129.6
-323535 -412933 2128.52
-321398 -412922 2128.46
-319491 -413209 2129.94
-316950 -412674 2127.18
-315637 -413741 2132.68
-313115 -413226 2130.03
-310190 -412170 2124.59
-308139 -412269 2125.1
-307367 -414091 2134.49
-305570 -414550 2136.85
-302946 -413884 2133.42
-299726 -412389 2125.72
-297900 -412804 2127.85
-297133 -414704 2137.65
-295146 -414915 2138.74
-292502 -414200 2135.05
-289561 -413050 2129.12
-287679 -413405 2130.95
-285987 -414041 2134.23
-284264 -414641 2137.32
-281951 -414382 2135.99
-278756 -412814 2127.91
-276531 -412669 2127.16
-274156 -412297 2125.24
-272676 -413274 2130.28
-270323 -412934 2128.52
-268774 -413827 2133.13
-266544 -413677 2132.36
-264654 -414055 2134.3
-262915 -414679 2137.52
-261114 -415214 2140.28
-259425 -415938 2144.01
-256744 -415070 2139.54
-254815 -415413 2141.3
-252768 -415568 2142.1
-249620 -413899 2133.5
-246722 -412622 2126.92
-244722 -412835 2128.01
-243348 -414118 2134.63
-241862 -415232 2140.37
-239530 -414900 2138.66
-237672 -415391 2141.19
-234901 -414280 2135.47
-233029 -414750 2137.88
-230994 -414934 2138.83
-229233 -415618 2142.36
-226682 -414870 2138.51
-224269 -414363 2135.89
-222349 -414767 2137.97
-220554 -415413 2141.31
-218471 -415523 2141.87
-215606 -414134 2134.71
-213112 -413436 2131.11
-211103 -413676 2132.35
-209767 -415253 2140.48
-208578 -417155 2150.28
-206518 -417338 2151.23
-204256 -417112 2150.06
-201343 -415538 2141.95
-198847 -414799 2138.14
-196847 -415091 2139.64
-194951 -415610 2142.32
-193072 -416177 2145.24
-190617 -415502 2141.76
-188406 -415350 2140.98
-186173 -415144 2139.92
-184287 -415716 2142.87
-182149 -415728 2142.93
-179903 -415490 2141.7
-177741 -415442 2141.45
-175868 -416078 2144.73
-173599 -415780 2143.2
-170823 -414245 2135.28
-168374 -413476 2131.32
-166741 -414714 2137.7
-164879 -415409 2141.28
-162753 -415448 2141.48
-160890 -416168 2145.19
-158793 -416295 2145.85
-156183 -415062 2139.5
-153621 -413924 2133.63
-151766 -414683 2137.54
-149731 -414968 2139.01
-147561 -414882 2138.57
-145588 -415355 2141.01
-143828 -416457 2146.69
-141983 -417345 2151.26
-139633 -416750 2148.2
-137594 -417081 2149.9
-135166 -416226 2145.5
-132831 -415633 2142.44
-130643 -415487 2141.69
-128512 -415523 2141.87
-126537 -416071 2144.69
-124465 -416315 2145.95
-122297 -416240 2145.57
-120130 -416165 2145.18
-117821 -415588 2142.21
-115718 -415726 2142.92
-113320 -414794 2138.11
-111229 -414969 2139.02
-109135 -415139 2139.89
-107157 -415770 2143.15
-104936 -415463 2141.56
-102855 -415707 2142.82
-100849 -416271 2145.72
-98746.5 -416452 2146.66
-96692.7 -416853 2148.73
-94236.7 -415498 2141.74
-92145 -415724 2142.91
-89856.5 -415052 2139.44
-87999.4 -416387 2146.33
-85777.7 -416022 2144.44
-83586.8 -415791 2143.25
-81250.7 -414806 2138.18
-79038.5 -414418 2136.17
-77019.4 -415049 2139.43
-74894.2 -415128 2139.84
-72735 -415017 2139.26
-70479.8 -414336 2135.75
-68050.6 -412557 2126.58
-65169.6 -407835 2102.24
-62459.4 -403904 2081.98
-60198.8 -402709 2075.82
-58130.3 -402760 2076.08
-56052.1 -402745 2076
-54213.2 -404514 2085.12
-52430 -406857 2097.2
-50940.9 -411772 2122.54
-48957.1 -412942 2128.57
-46902.2 -413592 2131.92
-44861.2 -414432 2136.25
-42893.6 -416068 2144.68
-40816.2 -416755 2148.22
-38649.6 -416557 2147.2
-36401.9 -415410 2141.29
-34251.3 -415297 2140.7
-32092.6 -415064 2139.51
-30008.8 -415836 2143.48
-27818.8 -415142 2139.91
-25701 -415499 2141.75
-23579.8 -415861 2143.61
-21458.4 -416292 2145.84
-19318.2 -416414 2146.46
-17161.6 -416170 2145.21
-15012.7 -416065 2144.67
-12848.7 -415441 2141.45
-10696.4 -415020 2139.28
-8558.43 -415084 2139.61
-6418.24 -415046 2139.41
-4283.71 -415519 2141.85
-2141.79 -415508 2141.79
0 -415154 2139.97
2140.28 -415213 2140.28
4277.47 -414914 2138.73
6426.37 -415572 2142.12
8577.34 -416001 2144.34
10723.4 -416069 2144.68
12892.9 -416870 2148.81
15041.6 -416868 2148.8
17207.3 -417277 2150.91
19334.2 -416760 2148.25
21452 -416169 2145.2
23584.3 -415941 2144.03
25677.1 -415113 2139.76
27836.1 -415401 2141.24
30018.6 -415972 2144.19
32194.3 -416379 2146.28
34303 -415923 2143.94
36431 -415742 2143
38618.4 -416220 2145.47
40729.8 -415873 2143.67
42800.5 -415164 2140.02
44900.9 -414799 2138.14
47115.9 -415477 2141.63
49333.3 -416116 2144.93
51490 -416211 2145.42
53623.9 -416122 2144.96
55712 -415697 2142.77
57806.4 -415350 2140.98
59880.1 -414883 2138.57
61995.3 -414727 2137.77
64105.1 -414546 2136.84
66215.3 -414380 2135.98
68432.6 -414873 2138.52
70632.5 -415233 2140.38
72868.9 -415781 2143.2
75077.4 -416143 2145.07
77082 -415386 2141.17
79031.4 -414381 2135.98
81086.4 -413968 2133.85
83487.5 -415297 2140.7
85838 -416314 2145.95
88017.9 -416475 2146.78
90086.6 -416114 2144.92
92167.2 -415824 2143.42
94222.4 -415435 2141.42
96407.1 -415622 2142.38
98492.5 -415381 2141.14
100635 -415385 2141.16
102642 -414845 2138.38
104869 -415196 2140.19
107154 -415757 2143.08
109344 -415935 2143.99
111551 -416170 2145.2
113724 -416273 2145.74
116073 -417005 2149.51
118046 -416381 2146.3
120089 -416024 2144.45
121941 -415028 2139.32
124036 -414879 2138.55
125909 -414007 2134.06
128247 -414666 2137.45
130320 -414462 2136.4
132682 -415166 2140.03
134957 -415582 2142.18
137417 -416544 2147.13
139630 -416743 2148.16
141870 -417011 2149.54
144168 -417442 2151.76
146158 -416979 2149.38
148015 -416159 2145.15
149764 -415062 2139.49
151969 -415240 2140.41
154195 -415469 2141.59
156602 -416174 2145.23
158554 -415670 2142.63
160502 -415164 2140.02
162641 -415163 2140.01
165162 -416123 2144.97
167647 -416968 2149.32
169509 -416262 2145.68
171611 -416157 2145.14
173708 -416041 2144.54
175770 -415847 2143.54
177616 -415151 2139.95
179542 -414656 2137.4
181674 -414643 2137.34
183578 -414117 2134.62
185657 -413995 2133.99
187830 -414081 2134.44
189814 -413751 2132.74
192366 -414657 2137.41
194659 -414986 2139.1
197057 -415533 2141.92
198915 -414940 2138.87
200910 -414644 2137.34
203107 -414766 2137.97
205357 -414992 2139.13
207294 -414589 2137.05
209556 -414835 2138.32
211721 -414887 2138.59
214624 -416370 2146.24
216338 -415540 2141.96
217835 -414313 2135.63
219727 -413856 2133.28
221945 -414013 2134.09
224262 -414352 2135.83
226003 -413628 2132.1
227773 -412972 2128.72
230252 -413601 2131.96
232789 -414321 2135.68
235446 -415241 2140.42
237278 -414702 2137.64
239219 -414362 2135.89
241161 -414029 2134.17
243328 -414085 2134.46
245498 -414144 2134.76
247415 -413781 2132.89
249121 -413073 2129.24
250932 -412548 2126.54
253306 -412953 2128.62
255933 -413758 2132.77
258020 -413686 2132.4
260239 -413823 2133.11
262533 -414076 2134.41
265199 -414908 2138.7
267558 -415250 2140.46
269246 -414554 2136.88
270856 -413749 2132.72
272768 -413414 2131
274838 -413322 2130.52
276909 -413234 2130.07
278683 -412706 2127.35
281413 -413592 2131.92
284077 -414368 2135.92
286333 -414541 2136.81
288095 -414003 2134.04
290353 -414180 2134.95
292016 -413512 2131.51
293692 -412871 2128.2
295135 -411916 2123.28
296829 -411321 2120.21
298978 -411360 2120.41
301395 -411765 2122.5
303451 -411674 2122.03
305086 -411019 2118.66
307841 -411870 2123.04
310140 -412104 2124.25
311573 -411192 2119.55
313133 -410458 2115.76
315928 -411342 2120.32
318594 -412048 2123.96
319576 -410582 2116.4
321184 -409933 2113.06
323070 -409644 2111.57
325611 -410185 2114.35
327039 -409326 2109.93
330082 -410487 2115.91
332874 -411323 2120.22
334913 -411222 2119.7
337121 -411330 2120.26
339074 -411127 2119.21
341765 -411817 2122.77
342608 -410284 2114.86
344182 -409639 2111.54
346419 -409788 2112.31
348796 -410099 2113.91
350214 -409287 2109.73
352347 -409313 2109.86
354437 -409290 2109.74
356321 -409032 2108.41
357895 -408421 2105.27
359182 -407493 2100.48
362072 -408384 2105.07
363564 -407696 2101.52
364988 -406941 2097.63
365732 -405441 2089.9
367428 -405006 2087.66
369753 -405267 2089
372353 -405823 2091.87
376266 -407796 2102.04
379120 -408607 2106.22
380749 -408095 2103.58
381787 -406960 2097.73
383202 -406237 2094
385240 -406177 2093.7
387072 -405903 2092.28
390485 -407280 2099.38
392447 -407137 2098.64
395286 -407901 2102.58
