-499662 -369572 2956.58
-495368 -368578 2948.62
-492189 -368405 2947.24
-489556 -368641 2949.13
-487709 -369477 2955.81
-484382 -369193 2953.55
-480774 -368692 2949.53
-477742 -368628 2949.02
-474695 -368552 2948.42
-472172 -368884 2951.07
-468831 -368578 2948.62
-464534 -367511 2940.09
-461047 -367075 2936.6
-457615 -366679 2933.43
-455258 -367143 2937.15
-451893 -366796 2934.37
-448779 -366649 2933.19
-445238 -366149 2929.2
-442265 -366113 2928.91
-438780 -365650 2925.2
-435675 -365499 2923.99
-432903 -365628 2925.02
-430492 -366064 2928.51
-427553 -366056 2928.45
-423540 -365121 2920.97
-419844 -364448 2915.58
-416890 -364415 2915.32
-414843 -365179 2921.43
-412716 -365883 2927.07
-409607 -365720 2925.76
-406595 -365643 2925.14
-403459 -365452 2923.62
-400505 -365425 2923.4
-397390 -365248 2921.98
-394232 -365030 2920.24
-391496 -365201 2921.61
-388269 -364914 2919.31
-385344 -364909 2919.27
-382066 -364567 2916.53
-379555 -364957 2919.65
-376739 -365057 2920.46
-374085 -365317 2922.54
-371379 -365531 2924.25
-368910 -365982 2927.86
-366292 -366292 2930.34
-362757 -365682 2925.46
-359221 -365062 2920.49
-356232 -364992 2919.93
-353020 -364690 2917.52
-350213 -364805 2918.44
-347399 -364915 2919.32
-344689 -365137 2921.09
-341296 -364632 2917.06
-338262 -364506 2916.05
-335369 -364531 2916.25
-332592 -364684 2917.48
-329642 -364648 2917.19
-326700 -364620 2916.96
-323449 -364244 2913.96
-320241 -363910 2911.28
-317023 -363558 2908.47
-313987 -363411 2907.29
-311189 -363539 2908.31
-308504 -363802 2910.42
-305338 -363497 2907.98
-302029 -363016 2904.13
-299125 -363016 2904.13
-296330 -363149 2905.19
-292941 -362551 2900.41
-289485 -361856 2894.85
-286417 -361638 2893.1
-284073 -362338 2898.7
-281578 -362859 2902.87
-278660 -362839 2902.71
-275811 -362909 2903.27
-272723 -362663 2901.31
-269511 -362246 2897.97
-266355 -361895 2895.16
-263551 -362020 2896.16
-260807 -362232 2897.86
-257569 -361754 2894.03
-254503 -361510 2892.08
-251534 -361399 2891.19
-248834 -361677 2893.42
-246042 -361826 2894.61
-243022 -361640 2893.12
-239894 -361287 2890.29
-236900 -361127 2889.02
-233925 -360996 2887.97
-231222 -361285 2890.28
-228430 -361439 2891.51
-225751 -361780 2894.24
-222808 -361702 2893.61
-219849 -361594 2892.75
-216947 -361578 2892.62
-213841 -361218 2889.74
-210861 -361064 2888.51
-208108 -361298 2890.38
-205302 -361447 2891.58
-202202 -361075 2888.6
-199318 -361083 2888.67
-196366 -360967 2887.74
-193687 -361357 2890.85
-190716 -361205 2889.64
-187703 -360967 2887.74
-184594 -360535 2884.28
-181621 -360358 2882.87
-178599 -360078 2880.62
-175676 -359992 2879.94
-172795 -359990 2879.92
-170152 -360492 2883.94
-167352 -360671 2885.37
-164413 -360555 2884.44
-161437 -360350 2882.8
-158508 -360245 2881.96
-155763 -360562 2884.5
-152754 -360268 2882.14
-149654 -359745 2877.96
-146619 -359360 2874.88
-143986 -359964 2879.71
-141171 -360129 2881.03
-138315 -360196 2881.57
-135156 -359457 2875.65
-132250 -359376 2875.01
-129325 -359236 2873.89
-126689 -359913 2879.3
-123767 -359788 2878.31
-120823 -359593 2876.74
-117848 -359294 2874.35
-114970 -359282 2874.26
-112125 -359376 2875
-109204 -359223 2873.78
-106412 -359501 2876.01
-103567 -359606 2876.85
-100573 -359189 2873.52
-97635.7 -358955 2871.64
-94800 -359091 2872.73
-91982 -359305 2874.44
-89037.2 -359021 2872.17
-86133.2 -358888 2871.11
-83363.7 -359326 2874.61
-80578.2 -359724 2877.79
-77701.8 -359730 2877.84
-74757.2 -359410 2875.28
-71807.1 -359035 2872.28
-68918.1 -358948 2871.59
-66057.5 -359008 2872.06
-63164.2 -358888 2871.1
-60252.8 -358648 2869.18
-57333.8 -358336 2866.69
-54494.6 -358517 2868.13
-51652.5 -358698 2869.58
-48800.3 -358825 2870.6
-45873.2 -358384 2867.08
-42959.5 -357995 2863.96
-40143.6 -358425 2867.4
-37308.1 -358732 2869.86
-34456.7 -358924 2871.39
-31594.2 -359025 2872.2
-28706.8 -358835 2870.68
-25835.6 -358827 2870.62
-22951.3 -358614 2868.91
-20108.9 -359088 2872.7
-17259.6 -359576 2876.6
-14377.8 -359445 2875.56
-11498.3 -359322 2874.58
-8620.36 -359182 2873.45
-5744.74 -359046 2872.37
-2869.08 -358635 2869.08
0 -358455 2867.64
2867.37 -358421 2867.37
5733.01 -358313 2866.5
8605.66 -358569 2868.55
11486.9 -358964 2871.72
14390.6 -359765 2878.12
17253.3 -359443 2875.54
20107.7 -359066 2872.53
22943.6 -358494 2867.95
25813.9 -358527 2868.21
28694.7 -358683 2869.47
31576.6 -358825 2870.6
34477.4 -359140 2873.12
37341.3 -359051 2872.41
40218.4 -359092 2872.74
43103.1 -359192 2873.54
45941.3 -358916 2871.33
48773.8 -358631 2869.05
51609.8 -358401 2867.21
54530.5 -358754 2870.03
57496.1 -359350 2874.8
60415.7 -359617 2876.94
63381.8 -360124 2880.99
66173.9 -359640 2877.12
69033 -359547 2876.38
71845.9 -359230 2873.84
74722.2 -359241 2873.93
77509.6 -358841 2870.73
80419.4 -359015 2872.12
83334.9 -359202 2873.62
86335.4 -359731 2877.85
89175.6 -359579 2876.63
92055.1 -359590 2876.72
94933 -359595 2876.76
97833.8 -359683 2877.46
100619 -359354 2874.83
103288 -358640 2869.12
106225 -358868 2870.94
109193 -359186 2873.49
112266 -359826 2878.61
115139 -359808 2878.46
118063 -359948 2879.58
120919 -359877 2879.01
123822 -359948 2879.59
126729 -360025 2880.2
129665 -360182 2881.45
132469 -359971 2879.77
135345 -359959 2879.67
137988 -359345 2874.76
140917 -359482 2875.85
143810 -359525 2876.2
146950 -360173 2881.38
149837 -360185 2881.48
152894 -360599 2884.79
155807 -360665 2885.32
158875 -361081 2888.65
161675 -360881 2887.05
164574 -360909 2887.27
167363 -360695 2885.56
170302 -360810 2886.48
173218 -360870 2886.96
176175 -361014 2888.11
179346 -361584 2892.67
182203 -361515 2892.12
185217 -361751 2894.01
187928 -361400 2891.2
190777 -361319 2890.56
193700 -361381 2891.05
196461 -361142 2889.14
199497 -361407 2891.26
202144 -360972 2887.77
205444 -361697 2893.57
208561 -362086 2896.68
211628 -362377 2899.01
214242 -361896 2895.17
217174 -361957 2895.65
220156 -362099 2896.79
223008 -362027 2896.21
225792 -361846 2894.77
228704 -361873 2894.99
231616 -361900 2895.2
234580 -362006 2896.05
237738 -362405 2899.24
241011 -362968 2903.74
243707 -362659 2901.27
246639 -362704 2901.63
249689 -362920 2903.36
252892 -363351 2906.81
255924 -363528 2908.23
258638 -363256 2906.05
261531 -363238 2905.9
264247 -362977 2903.82
267221 -363073 2904.58
270502 -363578 2908.62
273438 -363614 2908.91
276223 -363451 2907.61
279206 -363549 2908.39
282341 -363841 2910.73
285602 -364288 2914.3
288525 -364299 2914.39
291783 -364728 2917.83
294966 -365057 2920.45
297604 -364711 2917.69
300135 -364242 2913.93
302871 -364028 2912.22
305746 -363983 2911.86
309010 -364398 2915.19
312261 -364791 2918.33
315496 -365158 2921.26
318421 -365161 2921.29
321610 -365466 2923.72
324481 -365406 2923.25
327314 -365306 2922.45
330169 -365231 2921.85
333406 -365576 2924.61
336284 -365526 2924.21
339521 -365863 2926.91
342546 -365968 2927.75
345454 -365947 2927.57
348387 -365953 2927.62
351068 -365696 2925.56
354166 -365874 2926.99
357138 -365920 2927.36
360550 -366412 2931.3
363625 -366557 2932.46
366892 -366892 2935.13
370202 -367264 2938.11
373649 -367764 2942.12
376154 -367338 2938.71
378631 -366891 2935.13
381337 -366670 2933.36
384469 -366860 2934.88
387459 -366912 2935.29
390686 -367186 2937.49
393564 -367130 2937.04
396937 -367534 2940.27
399819 -367481 2939.85
403123 -367813 2942.5
405375 -367187 2937.5
408535 -367388 2939.1
411628 -367525 2940.2
415031 -367936 2943.49
417915 -367883 2943.06
420682 -367729 2941.83
423504 -367625 2941
426758 -367895 2943.16
429795 -367976 2943.8
432835 -368057 2944.45
435701 -367991 2943.93
438862 -368173 2945.38
441590 -367992 2943.93
444191 -367708 2941.66
447244 -367799 2942.39
450619 -368153 2945.22
453908 -368432 2947.45
456371 -368041 2944.33
458997 -367786 2942.29
461309 -367284 2938.27
463820 -366946 2935.57
466400 -366667 2933.34
468997 -366404 2931.23
471952 -366423 2931.38
474634 -366230 2929.84
477673 -366313 2930.51
480242 -366038 2928.31
482407 -365460 2923.68
485116 -365298 2922.39
487493 -364890 2919.12
490702 -365106 2920.85
492397 -364199 2913.59
494568 -363653 2909.22
496687 -363075 2904.6
499510 -363016 2904.13
501865 -362620 2900.96
503223 -361511 2892.08
504021 -360015 2880.12
504628 -358400 2867.2
505387 -356912 2855.3
507457 -356360 2850.88
511366 -357099 2856.79
0 -0 0
0 -0 0
0 -0 0
0 -0 0
0 -0 0
0 -0 0
0 -0 0
0 -0 0
0 -0 0
0 -0 0
0 -0 0
0 -0 0
0 -0 0
0 -0 0
0 -0 0
0 -0 0
0 -0 0
0 -0 0
0 -0 0
0 -0 0
0 -0 0
0 -0 0
0 -0 0
0 -0 0
0 -0 0
0 -0 0
0 -0 0
0 -0 0
0 -0 0
0 -0 0
269350 -160327 1282.62
0 -0 0
0 -0 0
0 -0 0
0 -0 0
0 -0 0
0 -0 0
0 -0 0
0 -0 0
0 -0 0
0 -0 0
0 -0 0
0 -0 0
0 -0 0
0 -0 0
0 -0 0
0 -0 0
0 -0 0
0 -0 0
0 -0 0
0 -0 0
0 -0 0
0 -0 0
0 -0 0
0 -0 0
0 -0 0
0 -0 0
0 -0 0
0 -0 0
0 -0 0
0 -0 0
0 -0 0
0 -0 0
0 -0 0
0 -0 0
0 -0 0
0 -0 0
0 -0 0
0 -0 0
0 -0 0
0 -0 0
0 -0 0
0 -0 0
0 -0 0
0 -0 0
0 -0 0
-0 -0 0
-586355 -285130 2299.43
-586891 -286514 2310.6
-0 -0 0
-588081 -289373 2333.65
-0 -0 0
-593926 -294587 2375.7
-0 -0 0
-0 -0 0
-0 -0 0
-586203 -295484 2382.94
-595235 -301262 2429.53
-596156 -302964 2443.26
-597633 -304965 2459.39
-598293 -306563 2472.28
-599804 -308613 2488.81
-603271 -311690 2513.63
-603171 -312942 2523.73
-604674 -315040 2540.65
-606744 -317452 2560.1
-608250 -319589 2577.33
-603813 -318608 2569.42
-601730 -318866 2571.5
-604831 -321884 2595.84
-607947 -324937 2620.46
-608631 -326711 2634.77
-606455 -326958 2636.76
-607835 -329133 2654.3
-607557 -330426 2664.72
-606381 -331239 2671.28
-606554 -332800 2683.87
-608756 -335492 2705.58
-611079 -338276 2728.03
-613184 -340964 2749.71
-610634 -341075 2750.61
-608882 -341635 2755.12
-608153 -342777 2764.33
-607049 -343717 2771.91
-608268 -345987 2790.22
-610474 -348842 2813.24
-610557 -350505 2826.65
-612074 -353010 2846.86
-610868 -353961 2854.52
-609997 -355116 2863.84
-610163 -356888 2878.13
-611768 -359522 2899.37
-610243 -360334 2905.92
-609383 -361548 2915.71
-609161 -363153 2928.66
-607092 -363668 2932.81
-604967 -364155 2936.73
-603275 -364908 2942.8
-601475 -365602 2948.41
-600156 -366598 2956.43
-599395 -367946 2967.3
-598452 -369194 2977.37
-596394 -369764 2981.97
-593347 -369724 2981.64
-589859 -369406 2979.08
-587011 -369489 2979.75
-584033 -369490 2979.76
-582088 -370148 2985.07
-579940 -370683 2989.38
-576672 -370504 2987.94
-573872 -370626 2988.92
-570005 -370055 2984.32
-568082 -370748 2989.91
-566555 -371708 2997.64
-564147 -372097 3000.78
-559249 -370839 2990.64
-554370 -369580 2980.48
-552416 -370268 2986.03
-550035 -370676 2989.32
-547048 -370677 2989.33
-544327 -370860 2990.81
-540927 -370580 2988.55
-536913 -369873 2982.85
-533911 -369860 2982.74
-531394 -370185 2985.36
-528340 -370137 2984.97
-525083 -369945 2983.43
-520191 -368592 2972.52
-516025 -367742 2965.66
-512572 -367393 2962.84
-510381 -367949 2967.33
-507993 -368369 2970.72
-505937 -369036 2976.1
-502796 -368916 2975.12
-498711 -368096 2968.52
-495367 -367817 2966.27
-493413 -368573 2972.37
-491324 -369237 2977.72
-487669 -368725 2973.59
-483966 -368171 2969.12
-480686 -367932 2967.2
-477684 -367906 2966.98
-474281 -367568 2964.25
-471256 -367521 2963.88
-467693 -367050 2960.08
-463941 -366425 2955.04
-460450 -365999 2951.6
-456924 -365539 2947.9
-453382 -365061 2944.04
-450342 -364983 2943.41
-447396 -364981 2943.39
-444321 -364873 2942.52
-441384 -364877 2942.56
-438092 -364587 2940.21
-435576 -364942 2943.08
-433239 -365453 2947.2
-430220 -365392 2946.71
-426772 -364964 2943.26
-422833 -364106 2936.34
-419865 -364079 2936.12
-416883 -364039 2935.8
-414382 -364421 2938.88
-411432 -364411 2938.8
-408597 -364504 2939.55
-405932 -364751 2941.54
-402291 -364118 2936.43
-399242 -364014 2935.6
-396131 -363854 2934.3
-393812 -364423 2938.9
-390351 -363936 2934.97
-387039 -363582 2932.11
-383569 -363073 2928.01
-381145 -363554 2931.88
-378569 -363896 2934.65
-376174 -364418 2938.86
-373176 -364361 2938.4
-370854 -364968 2943.29
-367956 -365012 2943.65
-364890 -364890 2942.66
-361452 -364390 2938.63
-358211 -364084 2936.16
-354925 -363724 2933.26
-352005 -363739 2933.38
-349465 -364148 2936.68
-346635 -364261 2937.59
-343260 -363797 2933.85
-339830 -363266 2929.57
-336864 -363228 2929.26
-334225 -363543 2931.8
-331630 -363912 2934.78
-328815 -364046 2935.85
-325489 -363610 2932.34
-321982 -362962 2927.11
-318863 -362743 2925.35
-315855 -362648 2924.58
-313235 -363002 2927.43
-310334 -363032 2927.68
-307512 -363157 2928.69
-304266 -362778 2925.63
-301150 -362550 2923.79
-297999 -362273 2921.56
-294576 -361658 2916.59
-291256 -361158 2912.56
-288366 -361186 2912.79
-286132 -362044 2919.71
-283623 -362570 2923.95
-280522 -362340 2922.1
-277507 -362219 2921.12
-274392 -361964 2919.07
-271352 -361802 2917.76
-267878 -361053 2911.72
-265116 -361257 2913.36
-262251 -361324 2913.91
-259100 -360993 2911.24
-256067 -360822 2909.85
-253054 -360674 2908.66
-250290 -360883 2910.35
-247163 -360567 2907.8
-244220 -360515 2907.38
-241362 -360589 2907.97
-238586 -360789 2909.59
-235545 -360588 2907.97
-232505 -360382 2906.31
-229562 -360325 2905.85
-226788 -360534 2907.53
-223987 -360707 2908.92
-221154 -360829 2909.91
-218048 -360506 2907.3
-214784 -359908 2902.48
-211806 -359780 2901.45
-209188 -360268 2905.39
-206561 -360754 2909.31
-203579 -360626 2908.28
-200455 -360239 2905.15
-197360 -359892 2902.36
-194579 -360116 2904.16
-191713 -360188 2904.74
-188722 -360024 2903.42
-185586 -359574 2899.79
-182676 -359553 2899.62
-179548 -359095 2895.93
-176512 -358812 2893.64
-173709 -358998 2895.15
-171064 -359524 2899.38
-168273 -359755 2901.25
-165243 -359477 2899
-162264 -359299 2897.58
-159232 -358995 2895.12
-156268 -358839 2893.86
-153385 -358862 2894.05
-150391 -358624 2892.13
-147403 -358391 2890.25
-144718 -358900 2894.35
-141927 -359162 2896.47
-139140 -359445 2898.75
-135947 -358669 2892.49
-133013 -358556 2891.58
-130056 -358377 2890.14
-127454 -359188 2896.67
-124570 -359224 2896.97
-121626 -359087 2895.86
-118670 -358904 2894.39
-115722 -358738 2893.05
-112772 -358557 2891.59
-109727 -358058 2887.56
-106821 -357996 2887.06
-103917 -357936 2886.58
-100985 -357774 2885.28
-98202 -358148 2888.29
-95501.6 -358854 2893.99
-92714.1 -359267 2897.32
-89768.5 -359074 2895.76
-86744.2 -358543 2891.47
-83880.6 -358662 2892.43
-81023.4 -358818 2893.69
-78168.3 -358995 2895.12
-75200 -358646 2892.31
-72166.7 -357947 2886.67
-69225.1 -357663 2884.38
-66335 -357632 2884.13
-63515.6 -357997 2887.07
-60673 -358259 2889.19
-57730.1 -357927 2886.51
-54834.8 -357869 2886.04
-51975.4 -358053 2887.52
-49137.3 -358413 2890.43
-46237.3 -358339 2889.83
-43307 -358004 2887.13
-40439 -358174 2888.5
-37558.4 -358250 2889.11
-34675.8 -358317 2889.65
-31801.5 -358490 2891.05
-28908.7 -358468 2890.87
-25997.5 -358188 2888.61
-23100.3 -358054 2887.53
-20232.7 -358408 2890.39
-17364.9 -358874 2894.14
-14462.3 -358666 2892.46
-11552 -358114 2888.01
-8668.96 -358317 2889.65
-5777.77 -358222 2888.89
-2887.85 -358094 2887.85
0 -357454 2882.69
2881.42 -357296 2881.42
5760.4 -357145 2880.2
8649.24 -357502 2883.08
11560.1 -358363 2890.03
14477.5 -359041 2895.49
17352.8 -358624 2892.13
20209.9 -358003 2887.12
23058.7 -357410 2882.34
25950.6 -357542 2883.4
28852.7 -357773 2885.27
31767.5 -358107 2887.96
34677.4 -358333 2889.78
37546.6 -358137 2888.2
40425.3 -358053 2887.52
43344.2 -358312 2889.62
46217.7 -358187 2888.6
49055.6 -357817 2885.62
51887.6 -357448 2882.65
54849.1 -357962 2886.79
57828.8 -358539 2891.44
60823.3 -359147 2896.35
63819 -359707 2900.86
66629.8 -359221 2896.95
69460.3 -358878 2894.18
72172.1 -357974 2886.88
75045.1 -357907 2886.35
77922.7 -357867 2886.02
80943.4 -358464 2890.84
83828.2 -358438 2890.63
86724.5 -358461 2890.82
89584.2 -358337 2889.81
92647.9 -359010 2895.25
95576.5 -359136 2896.26
98460.2 -359090 2895.89
101159 -358392 2890.26
103963 -358096 2887.87
106905 -358276 2889.32
109911 -358656 2892.39
112910 -358995 2895.12
115755 -358842 2893.89
118653 -358852 2893.97
121580 -358952 2894.77
124578 -359247 2897.16
127519 -359371 2898.16
130416 -359368 2898.13
133220 -359116 2896.1
136098 -359066 2895.69
138840 -358670 2892.5
141837 -358935 2894.64
144797 -359097 2895.95
148010 -359868 2902.16
150872 -359773 2901.39
153844 -359936 2902.71
156724 -359885 2902.3
159895 -360491 2907.19
162620 -360087 2903.93
165530 -360100 2904.03
168235 -359676 2900.61
171126 -359654 2900.44
174059 -359721 2900.98
177053 -359911 2902.51
180244 -360488 2907.16
183205 -360594 2908.01
186265 -360888 2910.39
189083 -360712 2908.97
192005 -360737 2909.17
194878 -360670 2908.63
197724 -360556 2907.71
200557 -360421 2906.62
203377 -360268 2905.38
206643 -360898 2910.47
209881 -361461 2915.01
212747 -361379 2914.34
215247 -360684 2908.74
218056 -360520 2907.42
221249 -360986 2911.17
224092 -360875 2910.29
227323 -361385 2914.4
230219 -361357 2914.17
233240 -361521 2915.5
235945 -361200 2912.9
239256 -361801 2917.75
242479 -362258 2921.43
245257 -362046 2919.73
248323 -362259 2921.44
251300 -362340 2922.09
254456 -362672 2924.78
257565 -362933 2926.88
260289 -362650 2924.6
263145 -362555 2923.83
266080 -362570 2923.95
269284 -362948 2927
272181 -362908 2926.67
275011 -362781 2925.65
277782 -362578 2924.02
281131 -363128 2928.45
284086 -363162 2928.72
287578 -363875 2934.47
290418 -363756 2933.52
293780 -364288 2937.8
296684 -364246 2937.47
299167 -363694 2933.01
301551 -363032 2927.68
304297 -362816 2925.93
307130 -362706 2925.05
310478 -363201 2929.04
313686 -363524 2931.64
317360 -364376 2938.51
320446 -364544 2939.87
323595 -364779 2941.77
326312 -364529 2939.75
329249 -364526 2939.72
332353 -364706 2941.18
335666 -365110 2944.44
338657 -365161 2944.85
341664 -365227 2945.38
344584 -365200 2945.16
347453 -365120 2944.52
350296 -365014 2943.67
353184 -364957 2943.2
356105 -364934 2943.01
359144 -365031 2943.8
362413 -365359 2946.45
365564 -365564 2948.1
368904 -365953 2951.24
372250 -366342 2954.37
375841 -366963 2959.38
378179 -366361 2954.52
380657 -365903 2950.83
383273 -365583 2948.25
386885 -366212 2953.32
389911 -366280 2953.87
393052 -366454 2955.28
395797 -366260 2953.71
399008 -366496 2955.61
402000 -366529 2955.88
405352 -366888 2958.78
407982 -366593 2956.39
410799 -366468 2955.39
413831 -366536 2955.93
416972 -366699 2957.25
420073 -366824 2958.26
423128 -366908 2958.94
426296 -367088 2960.39
429775 -367532 2963.97
432764 -367553 2964.14
435733 -367557 2964.17
438588 -367465 2963.43
441614 -367517 2963.85
444439 -367403 2962.92
446851 -366951 2959.28
449847 -366980 2959.52
453095 -367215 2961.41
456626 -367673 2965.1
458533 -366827 2958.28
461143 -366549 2956.04
463346 -365955 2951.25
466166 -365852 2950.42
469246 -365953 2951.23
472208 -365961 2951.3
475310 -366077 2952.23
477406 -365422 2946.95
480100 -365229 2945.4
482810 -365052 2943.96
485281 -364696 2941.09
487602 -364233 2937.36
489622 -363552 2931.87
492620 -363601 2932.26
494684 -362964 2927.12
496997 -362515 2923.51
498922 -361791 2917.67
501398 -361473 2915.1
503313 -360756 2909.32
504296 -359384 2898.25
504918 -357771 2885.25
505874 -356411 2874.29
506810 -355054 2863.34
508821 -354460 2858.55
513576 -355773 2869.14
0 -0 0
0 -0 0
0 -0 0
0 -0 0
0 -0 0
0 -0 0
0 -0 0
0 -0 0
0 -0 0
0 -0 0
0 -0 0
0 -0 0
0 -0 0
0 -0 0
0 -0 0
0 -0 0
0 -0 0
0 -0 0
0 -0 0
0 -0 0
0 -0 0
0 -0 0
0 -0 0
0 -0 0
0 -0 0
0 -0 0
0 -0 0
0 -0 0
0 -0 0
0 -0 0
0 -0 0
0 -0 0
0 -0 0
0 -0 0
0 -0 0
0 -0 0
0 -0 0
0 -0 0
0 -0 0
0 -0 0
0 -0 0
0 -0 0
0 -0 0
0 -0 0
0 -0 0
0 -0 0
0 -0 0
0 -0 0
0 -0 0
0 -0 0
0 -0 0
0 -0 0
0 -0 0
0 -0 0
0 -0 0
0 -0 0
0 -0 0
0 -0 0
0 -0 0
0 -0 0
0 -0 0
0 -0 0
0 -0 0
0 -0 0
0 -0 0
0 -0 0
0 -0 0
0 -0 0
0 -0 0
0 -0 0
0 -0 0
0 -0 0
0 -0 0
0 -0 0
0 -0 0
0 -0 0
-0 -0 0
-585529 -282432 2296.19
-589710 -285568 2321.69
-587546 -285645 2322.32
-586042 -286045 2325.57
-595798 -291965 2373.7
-0 -0 0
-0 -0 0
-589786 -292515 2378.17
-589473 -293543 2386.53
-596675 -298337 2425.51
-595699 -299065 2431.42
-597174 -301034 2447.43
-597633 -302506 2459.4
-596391 -303124 2464.42
-599087 -305758 2485.84
-601211 -308121 2505.05
-604254 -310976 2528.26
-605203 -312773 2542.87
-607168 -315113 2561.89
-606985 -316352 2571.97
-607360 -317895 2584.51
-605493 -318272 2587.58
-605724 -319760 2599.68
-607388 -322020 2618.05
-603862 -321537 2614.12
-606341 -324261 2636.27
-607606 -326356 2653.3
-604824 -326286 2652.73
-602742 -326596 2655.25
-609326 -331624 2696.13
-608872 -332850 2706.1
-611270 -335653 2728.88
-612012 -337567 2744.45
-609794 -337859 2746.82
-609180 -339046 2756.47
-607776 -339802 2762.62
-606543 -340661 2769.6
-609248 -343750 2794.71
-609185 -345299 2807.31
-610638 -347724 2827.03
-613953 -351238 2855.59
-613140 -352412 2865.14
-610890 -352767 2868.03
-608841 -353243 2871.89
-608655 -354809 2884.62
-608699 -356524 2898.57
-609240 -358548 2915.03
-608898 -360069 2927.39
-608587 -361624 2940.04
-606306 -362018 2943.23
-604048 -362429 2946.58
-604267 -364338 2962.09
-602854 -365276 2969.72
-601808 -366448 2979.25
-600062 -367202 2985.38
-597380 -367388 2986.9
-595177 -367873 2990.84
-592634 -368152 2993.1
-589737 -368211 2993.59
-586596 -368119 2992.84
-584151 -368464 2995.64
-581768 -368853 2998.8
-578634 -368766 2998.1
-575687 -368800 2998.37
-572967 -368979 2999.83
-571340 -369867 3007.05
-570175 -371066 3016.8
-566962 -370938 3015.76
-562869 -370229 3010
-558420 -369278 3002.26
-556227 -369816 3006.63
-553152 -369770 3006.26
-549266 -369179 3001.45
-546185 -369125 3001.02
-543802 -369545 3004.43
-540332 -369227 3001.84
-536572 -368706 2997.61
-534219 -369151 3001.23
-531418 -369290 3002.36
-528062 -369043 3000.35
-523605 -368019 2992.03
-519281 -367078 2984.37
-515756 -366694 2981.25
-513606 -367288 2986.08
-511755 -368104 2992.72
-508999 -368276 2994.11
-505727 -368074 2992.47
-501106 -366881 2982.77
-498763 -367353 2986.61
-496790 -368103 2992.71
-494851 -368889 2999.1
-490289 -367717 2989.57
-485960 -366706 2981.35
-481768 -365787 2973.88
-479142 -366052 2976.04
-476338 -366185 2977.11
-474290 -366903 2982.95
-470909 -366594 2980.44
-467258 -366068 2976.17
-462285 -364494 2963.37
-458559 -363889 2958.44
-455567 -363862 2958.23
-452602 -363857 2958.19
-449906 -364069 2959.91
-446537 -363735 2957.2
-443789 -363907 2958.59
-440925 -363985 2959.23
-437772 -363824 2957.92
-435044 -364016 2959.48
-431967 -363918 2958.68
-428972 -363886 2958.43
-425737 -363651 2956.51
-422578 -363476 2955.09
-419338 -363229 2953.08
-416276 -363134 2952.31
-413331 -363141 2952.36
-410565 -363305 2953.7
-407970 -363626 2956.31
-404660 -363308 2953.72
-400703 -362400 2946.35
-397773 -362416 2946.47
-395694 -363211 2952.94
-392471 -362962 2950.91
-388807 -362297 2945.51
-385494 -361953 2942.7
-382872 -362256 2945.17
-379996 -362322 2945.71
-377443 -362699 2948.78
-374676 -362875 2950.2
-372299 -363435 2954.76
-369363 -363453 2954.9
-366259 -363305 2953.7
-363060 -363060 2951.7
-359725 -362674 2948.57
-356576 -362470 2946.91
-353480 -362317 2945.67
-351020 -362819 2949.75
-347792 -362529 2947.39
-344602 -362274 2945.32
-341117 -361701 2940.66
-338333 -361869 2942.02
-335582 -362076 2943.7
-332948 -362413 2946.44
-330426 -362879 2950.23
-327161 -362530 2947.4
-323761 -362024 2943.28
-320441 -361599 2939.83
-317658 -361777 2941.28
-314900 -361988 2943
-311790 -361795 2941.42
-308746 -361674 2940.44
-305385 -361177 2936.4
-302079 -360735 2932.8
-298877 -360410 2930.16
-296092 -360587 2931.6
-293245 -360691 2932.45
-290337 -360722 2932.7
-287909 -361355 2937.85
-285032 -361432 2938.47
-281891 -361172 2936.36
-278585 -360694 2932.47
-275638 -360676 2932.32
-272807 -360810 2933.41
-269470 -360270 2929.02
-266558 -360292 2929.2
-263586 -360234 2928.73
-260667 -360247 2928.84
-257452 -359848 2925.59
-254319 -359554 2923.21
-251371 -359519 2922.92
-248280 -359276 2920.94
-245297 -359186 2920.21
-242377 -359185 2920.21
-239667 -359501 2922.77
-236610 -359296 2921.11
-233589 -359143 2919.86
-230363 -358666 2915.99
-227615 -358931 2918.14
-224907 -359267 2920.87
-222037 -359350 2921.55
-218878 -358960 2918.37
-215788 -358675 2916.06
-213074 -359015 2918.82
-210295 -359254 2920.77
-207468 -359417 2922.09
-204513 -359358 2921.61
-201539 -359265 2920.86
-198343 -358768 2916.81
-195414 -358745 2916.63
-192400 -358563 2915.14
-189392 -358387 2913.72
-186245 -357940 2910.08
-183543 -358346 2913.38
-180570 -358227 2912.41
-177557 -358024 2910.77
-174757 -358251 2912.61
-172008 -358593 2915.39
-169012 -358423 2914.01
-165816 -357813 2909.05
-162835 -357655 2907.76
-160011 -357843 2909.29
-157029 -357677 2907.95
-154232 -357935 2910.04
-151219 -357691 2908.06
-148223 -357479 2906.34
-145310 -357463 2906.2
-142496 -357694 2908.08
-139700 -357981 2910.42
-136669 -357666 2907.86
-133721 -357558 2906.98
-130814 -357558 2906.97
-128083 -358050 2910.98
-125186 -358090 2911.3
-122221 -357934 2910.03
-119305 -357915 2909.88
-116458 -358109 2911.45
-113416 -357696 2908.1
-110278 -356954 2902.06
-107347 -356855 2901.26
-104434 -356815 2900.94
-101593 -357027 2902.66
-98676.5 -356977 2902.25
-95945.1 -357614 2907.43
-93161.6 -358090 2911.3
-90321.9 -358374 2913.61
-87293.1 -357902 2909.77
-84361.3 -357808 2909.01
-81416.8 -357652 2907.74
-78581.7 -357983 2910.43
-75572.8 -357517 2906.64
-72572.8 -357058 2902.91
-69552.1 -356455 2898.01
-66627.6 -356313 2896.85
-63827.4 -356853 2901.24
-61007.4 -357329 2905.12
-58106.9 -357357 2905.34
-55136.3 -356935 2901.91
-52243.5 -356997 2902.42
-49362.7 -357154 2903.69
-46483 -357338 2905.19
-43519.3 -356858 2901.29
-40617.8 -356856 2901.27
-37696.1 -356663 2899.7
-34799.4 -356694 2899.95
-31927.2 -357004 2902.47
-29037.8 -357165 2903.78
-26144.9 -357314 2904.99
-23228.1 -357133 2903.52
-20324.1 -357123 2903.44
-17416.9 -357046 2902.82
-14499.3 -356683 2899.86
-11587.3 -356308 2896.81
-8699.54 -356681 2899.85
-5804.61 -356983 2902.3
-2902.88 -357054 2902.88
0 -356991 2902.37
2898.12 -356469 2898.12
5793.73 -356314 2896.86
8690.6 -356315 2896.87
11609.7 -356999 2902.43
14515.6 -357083 2903.12
17398.2 -356663 2899.7
20288.5 -356498 2898.36
23185.1 -356471 2898.14
26088.5 -356542 2898.72
28991 -356589 2899.1
31936.1 -357103 2903.28
34887.9 -357601 2907.33
37787.9 -357532 2906.76
40659.5 -357223 2904.25
43530.7 -356951 2902.04
46402 -356715 2900.12
49319.8 -356843 2901.17
52205.2 -356736 2900.29
55148.5 -357014 2902.55
58072.8 -357148 2903.64
61014.1 -357368 2905.43
64000 -357818 2909.09
66895 -357743 2908.48
69767.4 -357558 2906.97
72518.7 -356792 2900.75
75395.3 -356678 2899.82
78306.4 -356729 2900.24
81284 -357069 2903
84120.5 -356787 2900.71
87003.7 -356715 2900.12
89988.2 -357050 2902.84
93206.2 -358262 2912.7
96113.4 -358241 2912.53
98978.9 -358071 2911.14
101726 -357493 2906.45
104662 -357596 2907.28
107586 -357650 2907.73
110523 -357747 2908.51
113469 -357864 2909.46
116307 -357644 2907.68
119189 -357566 2907.04
122042 -357410 2905.77
125152 -357994 2910.52
128202 -358383 2913.69
131236 -358713 2916.37
133946 -358161 2911.88
136800 -358008 2910.63
139657 -357870 2909.52
142742 -358312 2913.1
145728 -358491 2914.56
148873 -359047 2919.08
151768 -358990 2918.62
154694 -359007 2918.75
157494 -358736 2916.55
160685 -359351 2921.55
163532 -359186 2920.21
166466 -359217 2920.46
169125 -358663 2915.96
172083 -358748 2916.65
174920 -358586 2915.33
177977 -358871 2917.65
181010 -359100 2919.52
183955 -359149 2919.91
186845 -359092 2919.45
189982 -359505 2922.81
192902 -359500 2922.76
195882 -359603 2923.61
198645 -359314 2921.25
201697 -359548 2923.15
204466 -359276 2920.94
207620 -359680 2924.23
210639 -359841 2925.54
213439 -359631 2923.83
216121 -359229 2920.56
219198 -359484 2922.63
222381 -359906 2926.07
225513 -360234 2928.73
228812 -360820 2933.49
231798 -360901 2934.15
234576 -360661 2932.2
237454 -360578 2931.53
240532 -360798 2933.32
243680 -361117 2935.91
246547 -361016 2935.09
249755 -361410 2938.3
252583 -361253 2937.02
255692 -361496 2938.99
258643 -361513 2939.13
261530 -361440 2938.54
264182 -361049 2935.36
267296 -361291 2937.32
270364 -361464 2938.74
273269 -361420 2938.37
276131 -361320 2937.56
279371 -361712 2940.75
282907 -362474 2946.94
286060 -362736 2949.08
289377 -363197 2952.82
292186 -363019 2951.37
295284 -363199 2952.84
297839 -362715 2948.91
300483 -362348 2945.92
303085 -361937 2942.58
306425 -362406 2946.39
309497 -362554 2947.59
312397 -362498 2947.14
315118 -362239 2945.03
318777 -363051 2951.63
322196 -363579 2955.93
325222 -363657 2956.56
327830 -363271 2953.42
330771 -363257 2953.31
333725 -363258 2953.31
336804 -363394 2954.43
339836 -363477 2955.1
343263 -363977 2959.16
346634 -364410 2962.68
349372 -364176 2960.78
352240 -364080 2960
355124 -364002 2959.36
358306 -364228 2961.21
361405 -364367 2962.33
364541 -364541 2963.75
367322 -364360 2962.28
370384 -364458 2963.07
373641 -364744 2965.4
377417 -365530 2971.79
380130 -365282 2969.77
382756 -364954 2967.1
385168 -364428 2962.83
388458 -364736 2965.33
391679 -364973 2967.26
395060 -365357 2970.38
398041 -365366 2970.45
401084 -365432 2971
403881 -365274 2969.71
406759 -365192 2969.04
409792 -365249 2969.51
412765 -365252 2969.53
415818 -365326 2970.13
418621 -365180 2968.94
421812 -365372 2970.5
424875 -365452 2971.16
428333 -365868 2974.53
431479 -366013 2975.72
434748 -366260 2977.73
438091 -366566 2980.21
441069 -366564 2980.2
443834 -366387 2978.75
446716 -366307 2978.11
449196 -365902 2974.81
452030 -365788 2973.88
454486 -365371 2970.5
457688 -365556 2972
460000 -365032 2967.74
462507 -364669 2964.79
464802 -364144 2960.52
467785 -364162 2960.67
471275 -364571 2963.99
474620 -364864 2966.37
477211 -364577 2964.04
479261 -363883 2958.4
481792 -363561 2955.78
484865 -363649 2956.49
487745 -363592 2956.03
490117 -363159 2952.51
492056 -362412 2946.44
494426 -361990 2943.01
496748 -361539 2939.34
499242 -361216 2936.72
500865 -360272 2929.04
502664 -359463 2922.47
503958 -358305 2913.05
504785 -356831 2901.06
505124 -355030 2886.42
505928 -353575 2874.59
507272 -352511 2865.94
509925 -352364 2864.75
512639 -352260 2863.9
0 -0 0
0 -0 0
0 -0 0
0 -0 0
0 -0 0
0 -0 0
0 -0 0
0 -0 0
0 -0 0
0 -0 0
0 -0 0
0 -0 0
0 -0 0
0 -0 0
0 -0 0
0 -0 0
0 -0 0
0 -0 0
0 -0 0
0 -0 0
0 -0 0
0 -0 0
0 -0 0
0 -0 0
0 -0 0
0 -0 0
0 -0 0
0 -0 0
0 -0 0
0 -0 0
0 -0 0
0 -0 0
0 -0 0
0 -0 0
0 -0 0
0 -0 0
0 -0 0
0 -0 0
0 -0 0
0 -0 0
0 -0 0
0 -0 0
0 -0 0
0 -0 0
0 -0 0
0 -0 0
0 -0 0
0 -0 0
0 -0 0
0 -0 0
0 -0 0
0 -0 0
0 -0 0
0 -0 0
0 -0 0
0 -0 0
0 -0 0
0 -0 0
0 -0 0
0 -0 0
0 -0 0
0 -0 0
0 -0 0
0 -0 0
0 -0 0
0 -0 0
0 -0 0
0 -0 0
0 -0 0
0 -0 0
0 -0 0
0 -0 0
0 -0 0
0 -0 0
0 -0 0
0 -0 0
-0 -0 0
-587442 -281051 2303.69
-591622 -284165 2329.22
-594258 -286559 2348.84
-585475 -283444 2323.31
-582269 -283015 2319.8
-0 -0 0
-0 -0 0
-0 -0 0
-597478 -295110 2418.94
-592286 -293735 2407.67
-597044 -297304 2436.92
-596984 -298492 2446.66
-600718 -301595 2472.09
-599109 -302030 2475.66
-600186 -303829 2490.4
-601742 -305886 2507.26
-604738 -308695 2530.28
-603989 -309608 2537.77
-604209 -311028 2549.41
-605923 -313231 2567.47
-608355 -315827 2588.74
-603937 -314873 2580.93
-603119 -315796 2588.49
-603971 -317605 2603.32
-606545 -320340 2625.73
-607732 -322362 2642.31
-605772 -322726 2645.29
-605194 -323832 2654.36
-606927 -326190 2673.69
-603561 -325816 2670.62
-610861 -331222 2714.94
-610725 -332627 2726.45
-609439 -333415 2732.91
-608798 -334564 2742.33
-608281 -335793 2752.4
-609624 -338064 2771.02
-612071 -340971 2794.85
-612877 -342986 2811.36
-611390 -343731 2817.47
-611455 -345359 2830.81
-613252 -347985 2852.33
-613023 -349480 2864.59
-611959 -350512 2873.05
-609147 -350547 2873.33
-608166 -351641 2882.3
-607517 -352939 2892.94
-609117 -355561 2914.43
-611041 -358399 2937.7
-609751 -359370 2945.66
-607677 -359886 2949.89
-606344 -360848 2957.77
-607735 -363449 2979.09
-606565 -364537 2988.01
-605072 -365439 2995.41
-602720 -365830 2998.61
-599915 -365948 2999.57
-597202 -366124 3001.02
-594670 -366413 3003.39
-592440 -366892 3007.31
-589372 -366854 3007
-586678 -367050 3008.61
-583744 -367096 3008.99
-580684 -367065 3008.73
-578531 -367608 3013.18
-575554 -367632 3013.37
-573994 -368564 3021.02
-571910 -369169 3025.98
-568804 -369118 3025.56
-565376 -368855 3023.4
-561383 -368219 3018.19
-558991 -368632 3021.57
-556116 -368729 3022.37
-552709 -368472 3020.27
-549386 -368270 3018.6
-545611 -367760 3014.43
-542247 -367523 3012.48
-538654 -367128 3009.24
-536065 -367415 3011.6
-533256 -367555 3012.75
-530970 -368059 3016.87
-527301 -367604 3013.15
-524186 -367533 3012.57
-519343 -366242 3001.98
-516654 -366464 3003.8
-514776 -367267 3010.39
-512492 -367788 3014.66
-508897 -367370 3011.23
-505232 -366894 3007.33
-502123 -366820 3006.72
-499274 -366937 3007.68
-496569 -367160 3009.51
-493001 -366744 3006.1
-488763 -365823 2998.55
-484549 -364907 2991.04
-481758 -365059 2992.28
-479340 -365497 2995.87
-477466 -366357 3002.93
-474264 -366203 3001.67
-470327 -365477 2995.71
-465516 -364057 2984.08
-460941 -362805 2973.81
-458156 -362955 2975.04
-455459 -363177 2976.86
-452877 -363493 2979.45
-449262 -362980 2975.25
-446860 -363446 2979.07
-443825 -363400 2978.69
-440899 -363444 2979.05
-437302 -362930 2974.84
-433652 -362367 2970.22
-431066 -362690 2972.87
-428397 -362948 2974.98
-425851 -363313 2977.98
-422109 -362657 2972.6
-418585 -362180 2968.69
-415539 -362112 2968.13
-412779 -362295 2969.63
-410376 -362797 2973.74
-406791 -362252 2969.28
-403137 -361638 2964.24
-399672 -361185 2960.54
-397557 -361955 2966.84
-394292 -361682 2964.6
-391067 -361440 2962.63
-387884 -361235 2960.94
-385385 -361669 2964.5
-382168 -361430 2962.54
-379334 -361553 2963.55
-376055 -361250 2961.06
-373702 -361838 2965.89
-370877 -361976 2967.02
-368328 -362387 2970.39
-365211 -362242 2969.2
-361855 -361855 2966.02
-358352 -361314 2961.59
-355456 -361380 2962.13
-352814 -361708 2964.82
-349701 -361555 2963.57
-346468 -361274 2961.26
-343280 -361036 2959.31
-340718 -361458 2962.77
-337840 -361548 2963.51
-334729 -361389 2962.2
-331902 -361537 2963.41
-328394 -360938 2958.5
-325157 -360628 2955.97
-322067 -360478 2954.74
-319790 -361244 2961.02
-317136 -361594 2963.89
-313828 -361198 2960.64
-310381 -360633 2956.01
-307013 -360149 2952.04
-303674 -359691 2948.29
-300513 -359437 2946.2
-298021 -359985 2950.7
-295310 -360278 2953.1
-292390 -360319 2953.43
-289634 -360565 2955.45
-286759 -360666 2956.28
-283641 -360460 2954.59
-280095 -359701 2948.37
-276995 -359504 2946.76
-274136 -359619 2947.7
-271213 -359652 2947.97
-268397 -359829 2949.42
-265291 -359616 2947.68
-262230 -359462 2946.41
-259220 -359373 2945.68
-256053 -359063 2943.14
-253082 -359023 2942.81
-249830 -358580 2939.18
-246942 -358654 2939.78
-244029 -358693 2940.11
-241222 -358891 2941.73
-238162 -358713 2940.27
-235015 -358397 2937.68
-231728 -357859 2933.27
-228884 -357997 2934.4
-226247 -358470 2938.28
-223397 -358611 2939.43
-220318 -358384 2937.57
-217328 -358297 2936.86
-214521 -358514 2938.64
-211607 -358557 2938.99
-208438 -358161 2935.75
-205645 -358410 2937.79
-202662 -358331 2937.14
-199561 -358035 2934.71
-196506 -357816 2932.92
-193496 -357674 2931.76
-190522 -357596 2931.11
-187415 -357259 2928.35
-184802 -357871 2933.37
-181933 -357998 2934.41
-178688 -357376 2929.31
-175733 -357323 2928.88
-172851 -357421 2929.68
-169973 -357529 2930.57
-166639 -356666 2923.49
-163691 -356613 2923.06
-160983 -357090 2926.96
-158164 -357334 2928.97
-155184 -357216 2928
-152195 -357073 2926.83
-149142 -356770 2924.35
-146214 -356762 2924.28
-143275 -356726 2923.99
-140665 -357524 2930.53
-137685 -357396 2929.47
-134632 -357067 2926.77
-131688 -357020 2926.39
-128858 -357289 2928.6
-125881 -357150 2927.45
-122824 -356773 2924.37
-119943 -356903 2925.43
-117109 -357183 2927.73
-114100 -356930 2925.65
-110946 -356194 2919.62
-108039 -356236 2919.96
-105158 -356369 2921.06
-102216 -356294 2920.44
-99296.8 -356300 2920.49
-96463.2 -356622 2923.13
-93713.8 -357284 2928.56
-90810.1 -357382 2929.36
-87700.5 -356648 2923.35
-84637.7 -356062 2918.54
-81698.5 -355972 2917.8
-78903.9 -356529 2922.37
-75984.6 -356543 2922.49
-73048.9 -356479 2921.96
-70091.9 -356300 2920.49
-67099 -355916 2917.35
-64167.5 -355838 2916.71
-61248.9 -355827 2916.62
-58366.9 -356038 2918.34
-55458.7 -356103 2918.88
-52603.2 -356533 2922.4
-49708.4 -356731 2924.03
-46794.9 -356811 2924.68
-43818.9 -356394 2921.26
-40840.1 -355892 2917.15
-37913 -355799 2916.38
-34995.7 -355790 2916.31
-32108.1 -356108 2918.92
-29205.7 -356309 2920.57
-26271.6 -356126 2919.06
-23361.3 -356261 2920.17
-20441.5 -356266 2920.21
-17526.6 -356374 2921.1
-14584.1 -355852 2916.82
-11662.6 -355709 2915.65
-8756.64 -356103 2918.88
-5843.65 -356462 2921.82
-2922.38 -356530 2922.38
0 -356407 2921.37
2918.65 -356075 2918.65
5835.69 -355977 2917.85
8751.83 -355908 2917.28
11684.6 -356380 2921.14
14591.6 -356036 2918.33
17501.6 -355866 2916.94
20420.4 -355898 2917.2
23361.7 -356267 2920.22
26290.6 -356383 2921.17
29190.5 -356124 2919.05
32145.8 -356526 2922.35
35101.7 -356868 2925.14
38028.7 -356885 2925.28
40913.7 -356533 2922.4
43783 -356102 2918.87
46655.6 -355749 2915.98
49574 -355767 2916.12
52512.6 -355918 2917.36
55477.1 -356221 2919.85
58354.6 -355963 2917.73
61312.6 -356197 2919.65
64325.7 -356715 2923.89
67313.8 -357056 2926.69
70224.4 -356974 2926.02
72986 -356172 2919.44
75818.1 -355762 2916.08
78728.1 -355734 2915.85
81761 -356244 2920.03
84654.4 -356132 2919.12
87540.9 -356000 2918.03
90486.9 -356110 2918.93
93631.9 -356972 2926
96632.8 -357248 2928.27
99496.7 -357018 2926.37
102286 -356540 2922.46
105204 -356526 2922.34
108100 -356437 2921.61
111102 -356696 2923.74
114021 -356681 2923.61
116915 -356590 2922.87
119765 -356373 2921.09
122761 -356591 2922.87
125822 -356983 2926.09
128885 -357362 2929.2
131851 -357462 2930.01
134658 -357137 2927.35
137597 -357165 2927.59
140564 -357267 2928.42
143736 -357874 2933.39
146663 -357859 2933.27
149753 -358232 2936.33
152605 -358034 2934.7
155494 -357930 2933.86
158168 -357342 2929.03
161147 -357454 2929.95
164209 -357741 2932.31
167276 -358029 2934.67
170144 -357888 2933.51
173076 -357887 2933.5
175863 -357589 2931.06
178968 -357937 2933.91
181961 -358052 2934.86
184907 -358074 2935.03
187693 -357789 2932.7
190865 -358238 2936.38
193962 -358535 2938.82
196965 -358652 2939.77
199950 -358734 2940.44
202874 -358705 2940.21
205643 -358406 2937.76
208632 -358494 2938.48
211624 -358585 2939.22
214496 -358473 2938.31
217409 -358431 2937.96
220627 -358887 2941.69
223772 -359214 2944.37
226829 -359391 2945.83
230017 -359770 2948.94
232978 -359789 2949.09
235712 -359461 2946.4
238683 -359497 2946.7
241864 -359847 2949.56
245062 -360211 2952.55
248022 -360222 2952.64
251171 -360505 2954.96
254145 -360532 2955.18
257356 -360890 2958.11
260198 -360729 2956.8
263086 -360635 2956.03
265713 -360188 2952.36
268867 -360459 2954.58
271890 -360550 2955.33
274692 -360349 2953.68
277620 -360315 2953.4
280932 -360775 2957.17
284517 -361574 2963.72
287687 -361834 2965.85
290686 -361874 2966.18
293636 -361854 2966.02
296793 -362088 2967.93
299727 -362047 2967.6
302459 -361765 2965.28
305253 -361562 2963.63
308607 -362020 2967.37
311643 -362099 2968.02
314558 -362039 2967.53
317429 -361928 2966.62
320823 -362411 2970.58
323913 -362545 2971.68
326859 -362516 2971.44
329560 -362219 2969.01
332456 -362140 2968.36
335542 -362266 2969.4
338469 -362222 2969.03
342012 -362830 2974.01
345262 -363120 2976.39
348422 -363312 2977.96
350941 -362837 2974.07
354074 -363000 2975.41
357418 -363375 2978.49
360749 -363730 2981.4
363911 -363911 2982.88
366611 -363630 2980.58
369191 -363236 2977.34
371983 -363055 2975.86
375760 -363831 2982.22
379579 -364635 2988.81
382407 -364482 2987.56
385074 -364178 2985.07
387516 -363668 2980.89
390894 -364038 2983.92
394345 -364470 2987.46
397351 -364487 2987.6
400553 -364682 2989.2
403253 -364421 2987.06
406244 -364425 2987.09
408943 -364169 2984.99
412117 -364336 2986.36
415382 -364580 2988.36
418375 -364584 2988.39
421295 -364525 2987.91
424192 -364446 2987.26
427180 -364447 2987.27
430388 -364635 2988.81
433666 -364878 2990.8
436695 -364910 2991.06
439974 -365148 2993.02
442938 -365125 2992.83
445882 -365085 2992.5
448821 -365041 2992.14
451877 -365092 2992.56
454839 -365068 2992.36
457100 -364485 2987.58
460152 -364536 2988
462892 -364340 2986.4
465699 -364200 2985.25
468008 -363675 2980.94
470484 -363285 2977.75
473577 -363374 2978.47
476745 -363518 2979.66
479203 -363123 2976.42
481356 -362503 2971.33
483725 -362052 2967.64
486597 -361981 2967.06
489829 -362177 2968.66
492277 -361794 2965.53
494566 -361300 2961.47
496300 -360408 2954.17
498646 -359969 2950.57
500788 -359389 2945.81
502338 -358393 2937.65
503254 -356959 2925.89
504422 -355719 2915.73
505247 -354253 2903.72
505339 -352294 2887.65
506253 -350926 2876.44
508140 -350243 2870.85
510208 -349693 2866.34
513554 -350020 2869.01
0 -0 0
0 -0 0
0 -0 0
0 -0 0
0 -0 0
0 -0 0
0 -0 0
0 -0 0
0 -0 0
0 -0 0
0 -0 0
0 -0 0
0 -0 0
0 -0 0
0 -0 0
0 -0 0
0 -0 0
0 -0 0
0 -0 0
0 -0 0
0 -0 0
0 -0 0
0 -0 0
0 -0 0
0 -0 0
0 -0 0
0 -0 0
0 -0 0
0 -0 0
0 -0 0
0 -0 0
0 -0 0
0 -0 0
0 -0 0
0 -0 0
0 -0 0
0 -0 0
0 -0 0
0 -0 0
0 -0 0
0 -0 0
0 -0 0
0 -0 0
0 -0 0
0 -0 0
0 -0 0
0 -0 0
0 -0 0
0 -0 0
0 -0 0
0 -0 0
0 -0 0
0 -0 0
0 -0 0
0 -0 0
0 -0 0
0 -0 0
0 -0 0
0 -0 0
0 -0 0
0 -0 0
0 -0 0
0 -0 0
0 -0 0
0 -0 0
0 -0 0
0 -0 0
0 -0 0
0 -0 0
0 -0 0
0 -0 0
0 -0 0
0 -0 0
0 -0 0
0 -0 0
0 -0 0
-0 -0 0
-588720 -279354 2308.71
-597237 -284510 2351.33
-592181 -283217 2340.64
-576730 -276922 2288.61
-0 -0 0
-0 -0 0
-0 -0 0
-0 -0 0
-0 -0 0
-595006 -292665 2418.72
-0 -0 0
-599154 -297122 2455.55
-603565 -300540 2483.81
-0 -0 0
-599530 -301009 2487.68
-602199 -303609 2509.16
-599956 -303743 2510.28
-600562 -305328 2523.37
-602745 -307731 2543.23
-604722 -310048 2562.38
-603565 -310772 2568.36
-600600 -310566 2566.66
-602183 -312722 2584.48
-604377 -315214 2605.07
-605762 -317304 2622.35
-606376 -319007 2636.42
-608463 -321502 2657.04
-613802 -325746 2692.12
-610656 -325504 2690.11
-609287 -326211 2695.96
-612323 -329293 2721.43
-613880 -331605 2740.54
-612135 -332145 2745
-609498 -332204 2745.49
-610093 -334033 2760.6
-610401 -335721 2774.55
-613216 -338809 2800.07
-611626 -339481 2805.63
-610165 -340230 2811.82
-609751 -341573 2822.92
-610508 -343588 2839.57
-611294 -345638 2856.51
-611415 -347330 2870.49
-609536 -347895 2875.17
-609274 -349394 2887.55
-608760 -350762 2898.86
-611080 -353783 2923.83
-611506 -355732 2939.93
-610120 -356640 2947.44
-608077 -357172 2951.83
-606932 -358238 2960.64
-607812 -360516 2979.47
-606369 -361432 2987.04
-605484 -362691 2997.44
-604086 -363654 3005.4
-602164 -364309 3010.82
-598886 -364146 3009.47
-596225 -364360 3011.24
-593908 -364786 3014.76
-592526 -365794 3023.09
-589358 -365704 3022.35
-586862 -366033 3025.06
-583791 -366004 3024.82
-581584 -366519 3029.08
-579081 -366852 3031.84
-575943 -366785 3031.28
-573709 -367295 3035.5
-571146 -367600 3038.01
-568177 -367644 3038.38
-563875 -366822 3031.59
-560708 -366734 3030.86
-558187 -367069 3033.63
-555951 -367596 3037.98
-551762 -366831 3031.66
-548316 -366554 3029.37
-545022 -366376 3027.9
-541337 -365932 3024.23
-538808 -366268 3027.01
-535726 -366231 3026.7
-533499 -366781 3031.25
-530490 -366796 3031.37
-528145 -367273 3035.32
-523363 -366052 3025.22
-519833 -365697 3022.29
-517207 -365977 3024.6
-514707 -366350 3027.69
-511632 -366316 3027.41
-508156 -365993 3024.74
-505727 -366425 3028.31
-501722 -365713 3022.42
-498420 -365508 3020.72
-494729 -365013 3016.64
-491455 -364822 3015.06
-487567 -364170 3009.67
-485007 -364508 3012.46
-482443 -364847 3015.27
-479873 -365186 3018.07
-476499 -364914 3015.81
-472800 -364388 3011.47
-468071 -363055 3000.46
-464466 -362583 2996.55
-461498 -362606 2996.74
-459041 -363032 3000.27
-455691 -362754 2997.97
-451537 -361827 2990.31
-448953 -362155 2993.02
-446043 -362223 2993.58
-443447 -362548 2996.26
-439806 -362017 2991.88
-435816 -361190 2985.04
-432507 -360920 2982.81
-430316 -361585 2988.3
-427669 -361874 2990.69
-424132 -361409 2986.85
-420559 -360905 2982.69
-417674 -360990 2983.39
-414860 -361137 2984.61
-411735 -361014 2983.59
-408639 -360915 2982.77
-405591 -360857 2982.29
-402590 -360840 2982.15
-399181 -360455 2978.96
-396214 -360465 2979.05
-393197 -360430 2978.76
-390058 -360282 2977.54
-387026 -360232 2977.12
-383833 -360029 2975.45
-381248 -360398 2978.5
-378479 -360598 2980.15
-375738 -360827 2982.04
-372619 -360696 2980.96
-369853 -360904 2982.68
-366735 -360772 2981.58
-363575 -360595 2980.12
-360364 -360364 2978.22
-357502 -360481 2979.18
-354739 -360701 2981
-351444 -360379 2978.34
-348362 -360272 2977.45
-345418 -360307 2977.75
-342999 -360894 2982.6
-339974 -360850 2982.23
-336735 -360574 2979.95
-333412 -360204 2976.89
-330117 -359858 2974.03
-326996 -359696 2972.69
-323910 -359569 2971.65
-321618 -360331 2977.94
-318723 -360425 2978.72
-315630 -360295 2977.65
-311857 -359378 2970.06
-308375 -358782 2965.14
-305251 -358595 2963.6
-302364 -358687 2964.35
-299758 -359116 2967.9
-296794 -359120 2967.94
-293791 -359078 2967.58
-290615 -358821 2965.46
-287645 -358815 2965.41
-284561 -358665 2964.18
-281198 -358157 2959.98
-278147 -358040 2959.01
-275361 -358266 2960.87
-272752 -358728 2964.69
-270062 -359094 2967.72
-266658 -358507 2962.87
-263566 -358331 2961.41
-260352 -357984 2958.54
-257708 -358422 2962.17
-254643 -358276 2960.96
-251249 -357660 2955.87
-248020 -357267 2952.62
-244918 -357049 2950.82
-242250 -357466 2954.27
-239321 -357504 2954.58
-236017 -356976 2950.21
-232773 -356526 2946.5
-229781 -356455 2945.91
-227148 -356946 2949.97
-224302 -357112 2951.34
-221501 -357355 2953.35
-218530 -357326 2953.11
-215580 -357331 2953.15
-212441 -357020 2950.58
-209508 -357048 2950.81
-206778 -357430 2953.97
-203791 -357373 2953.49
-200585 -356923 2949.77
-197411 -356518 2946.43
-194491 -356567 2946.83
-191501 -356487 2946.17
-188449 -356287 2944.52
-185692 -356647 2947.5
-182954 -357055 2950.87
-179800 -356652 2947.54
-176800 -356547 2946.67
-173809 -356455 2945.91
-170812 -356350 2945.04
-167458 -355481 2937.86
-164487 -355410 2937.27
-161858 -356088 2942.88
-159138 -356588 2947.01
-156156 -356506 2946.33
-153030 -356088 2942.88
-149979 -355832 2940.76
-146919 -355545 2938.39
-144033 -355674 2939.45
-141290 -356169 2943.55
-138408 -356326 2944.85
-135314 -355936 2941.62
-132438 -356112 2943.07
-129615 -356443 2945.81
-126571 -356166 2943.52
-123340 -355336 2936.66
-120419 -355382 2937.04
-117573 -355658 2939.32
-114719 -355922 2941.51
-111869 -356214 2943.92
-108984 -356408 2945.52
-105953 -356121 2943.15
-102855 -355583 2938.7
-99813.4 -355218 2935.69
-96901.6 -355306 2936.41
-94087.9 -355770 2940.25
-91209.8 -356012 2942.25
-88153.6 -355553 2938.45
-85091.6 -355038 2934.19
-82063 -354630 2930.82
-79246.9 -355144 2935.07
-76337.1 -355261 2936.04
-73471 -355600 2938.84
-70487.8 -355376 2936.99
-67537.1 -355304 2936.39
-64566.1 -355114 2934.82
-61574.4 -354786 2932.11
-58637.3 -354756 2931.87
-55680.4 -354596 2930.55
-52794.9 -354899 2933.05
-49842.8 -354763 2931.93
-46942 -354999 2933.88
-43984 -354804 2932.26
-41023 -354556 2930.21
-38052.8 -354184 2927.14
-35163.8 -354568 2930.32
-32266 -354926 2933.28
-29360.7 -355264 2936.07
-26386.7 -354755 2931.86
-23460.8 -354844 2932.6
-20520 -354703 2931.43
-17590.8 -354747 2931.79
-14654.7 -354643 2930.93
-11724.2 -354657 2931.05
-8800.55 -354956 2933.52
-5870.56 -355169 2935.28
-2932.96 -354889 2932.96
0 -355130 2934.96
2932.88 -354879 2932.88
5876.58 -355533 2938.29
8809.17 -355303 2936.39
11760.6 -355758 2940.15
14679 -355232 2935.8
17605.8 -355050 2934.29
20528.3 -354846 2932.61
23486 -355225 2935.75
26406.3 -355018 2934.04
29314.7 -354708 2931.47
32266.6 -354932 2933.32
35255.1 -355489 2937.93
38235.7 -355886 2941.21
41121.1 -355404 2937.22
43990.9 -354860 2932.73
46849 -354296 2928.06
49794.8 -354422 2929.11
52792.1 -354880 2932.9
55827.9 -355536 2938.31
58726.8 -355297 2936.34
61621 -355054 2934.33
64548.9 -355019 2934.04
67650.6 -355901 2941.33
70621.6 -356051 2942.57
73486.4 -355674 2939.45
76304.7 -355110 2934.8
79174.8 -354820 2932.4
82144.7 -354982 2933.74
85167.3 -355353 2936.8
88086.2 -355281 2936.21
90913.2 -354855 2932.68
93908.8 -355093 2934.65
96957.2 -355510 2938.1
99961.4 -355745 2940.04
102869 -355632 2939.11
105721 -355339 2936.68
108642 -355288 2936.26
111533 -355146 2935.09
114538 -355361 2936.86
117437 -355246 2935.92
120397 -355319 2936.52
123316 -355266 2936.09
