-369682 230481 2281.99
-366155 229699 2274.25
-362260 228677 2264.13
-358376 227647 2253.94
-355114 227003 2247.56
-351528 226142 2239.03
-347740 225139 2229.1
-344545 224510 2222.87
-341540 223997 2217.79
-338807 223657 2214.43
-336307 223467 2212.55
-334328 223623 2214.09
-332539 223910 2216.93
-329868 223602 2213.88
-327344 223390 2211.78
-324184 222739 2205.33
-321474 222390 2201.88
-317884 221423 2192.31
-315416 221229 2190.39
-312595 220784 2185.98
-310167 220612 2184.27
-307177 220035 2178.56
-304366 219578 2174.04
-301204 218861 2166.94
-298244 218280 2161.19
-295998 218218 2160.57
-292852 217485 2153.32
-0 0 0
-0 0 0
-259248 196873 1949.23
-0 0 0
-0 0 0
-0 0 0
-0 0 0
-0 0 0
-0 0 0
-0 0 0
-83215.1 67237.8 665.721
-84869.6 69127.7 684.433
-83321.1 68418.1 677.407
-82384.7 68203.7 675.284
-81353.5 67906.7 672.343
-80475.4 67733.5 670.628
-79586 67547.7 668.789
-78610.9 67285.6 666.194
-77569.8 66962 662.99
-76683.4 66767.5 661.064
-75787.9 66561.6 659.026
-75012.2 66458.2 658.002
-74236.9 66353.4 656.964
-73532.8 66310.8 656.542
-72828.2 66267.1 656.11
-72154 66250.5 655.945
-71579.1 66325.6 656.689
-70958.6 66359.4 657.024
-70180.3 66244.9 655.89
-69430.1 66155.1 655.001
-68495.9 65886.5 652.342
-67138.1 65201.4 645.559
-65641.8 64367.2 637.299
-64607 63973.6 633.402
-63611.7 63611.7 629.819
-62853 63481.5 628.53
-62073.3 63327.3 627.003
-61484.8 63367 627.396
-60877.7 63388.1 627.605
-60314.2 63455.6 628.273
-59686.4 63456.1 628.278
-59097.2 63498 628.693
-58462.1 63491.1 628.625
-57843.9 63502.5 628.738
-57069 63340.4 627.132
-56393.9 63286.5 626.599
-55750.6 63267.6 626.411
-55095.1 63234.2 626.081
-54432.2 63191.4 625.657
-53600.4 62949.3 623.26
-52913.9 62874.2 622.517
-52236.7 62808.4 621.865
-51703.6 62916.4 622.935
-51131.2 62978.7 623.551
-50496.6 62965 623.415
-49839.9 62922.8 622.998
-49192.2 62891.4 622.687
-48556.9 62874.9 622.524
-47900.4 62830.4 622.083
-47227.8 62763.2 621.418
-46565.6 62708.3 620.875
-46039.7 62838 622.158
-45504.7 62958.5 623.352
-44932.8 63030.7 624.067
-44234.3 62924.8 623.018
-43540.4 62822.5 622.005
-42871.6 62754.1 621.328
-42299.4 62827 622.05
-41786 62990.9 623.672
-41266.7 63150.6 625.253
-40634.9 63140.4 625.152
-39992.8 63113.7 624.888
-39516 63351 627.238
-38997.2 63527.8 628.988
-38421.5 63615.9 629.861
-37723.4 63501.1 628.724
-37147.4 63591.3 629.617
-36533.2 63618.2 629.883
-35960.8 63720 630.891
-35317.5 63697.6 630.67
-34719.4 63757.5 631.262
-34149 63871.3 632.389
-33550.7 63936.2 633.032
-33036.4 64166.9 635.316
-32480.2 64323.6 636.868
-31954.9 64549 639.099
-31339.3 64597.4 639.578
-30839.5 64891.4 642.489
-30455.8 65447.5 647.995
-30390.5 66726.9 660.663
-30533.8 68531.4 678.529
-30506.6 70026.5 693.332
-30257.5 71070 703.664
-29717.6 71463.6 707.561
-29245.3 72043.3 713.3
-28681.7 72421.3 717.042
-28249.1 73157.8 724.335
-27715 73663.4 729.341
-27139.3 74083 733.495
-26482.3 74297.7 735.62
-25800.8 74453.7 737.165
-25132.3 74657.7 739.185
-24463.8 74874 741.327
-23814.2 75163.6 744.194
-23085.3 75213.4 744.687
-22422.1 75487.8 747.404
-21629.2 75329.3 745.835
-20780.4 74958 742.159
-19779.1 73988.4 732.559
-18844.8 73204.8 724.8
-17949.1 72514.5 717.965
-17163.5 72229.9 715.148
-16457.4 72269.5 715.539
-15872.5 72869.3 721.479
-15383.5 73987.2 732.546
-14880 75143.8 743.998
-14329.1 76170.2 754.161
-13674.2 76727.6 759.679
-12952.1 76950.6 761.887
-12175.3 76856.6 760.956
-11383.7 76650.6 758.916
-10609.5 76539.7 757.819
-9819.1 76286.9 755.316
-9032.07 76019.9 752.673
-8247.21 75724.4 749.746
-7488.85 75637.4 748.885
-6736.79 75601.7 748.532
-5993.11 75663 749.139
-5272.66 76076.9 753.237
-4582.22 77134 763.703
-3869.77 78169.4 773.954
-3119.63 78770.7 779.907
-2339.05 78748 779.683
-1541.77 77859.4 770.886
-758.112 76569.4 758.112
0 75902.3 751.508
750.778 75828.6 750.778
1513.07 76410.1 756.535
2289.77 77088.8 763.256
3073.43 77604.1 768.358
3843.61 77640.9 768.722
4605.44 77524.9 767.573
5368.83 77464.6 766.976
6129.64 77386.7 766.205
6903.32 77470.6 767.035
7659.87 77364.7 765.987
8384.83 76988 762.258
9103.54 76621.4 758.628
9842.82 76471.1 757.14
10591.2 76408.1 756.516
11349.9 76422.9 756.663
12155.5 76731.5 759.718
12857.7 76389.9 756.335
13169 73892.5 731.609
13533.7 71942.2 712.299
14092.5 71167.4 704.627
14754.4 70961.7 702.591
15469.5 71019.1 703.159
16227.3 71259.1 705.536
16982.8 71469.4 707.618
17753.6 71724.6 710.145
18558.7 72093.3 713.795
19329.7 72307.3 715.914
20073.9 72409.3 716.924
20776.3 72358.8 716.423
21524.5 72465.8 717.483
22298.1 72648.8 719.295
23056.9 72773.4 720.529
23800.3 72843.4 721.222
24444.4 72614.1 718.952
25144.6 72560.1 718.417
25817.7 72433.1 717.16
26471.7 72260.6 715.452
26935.2 71590.9 708.821
27325.4 70765.7 700.65
27765 70106.7 694.126
28253.7 69600.7 689.116
28706.2 69031.5 683.48
29201.5 68589.5 679.104
29810.1 68427.6 677.501
30555.4 68579.8 679.008
31339.2 68810 681.287
32120.3 69024.4 683.41
32892.6 69211.4 685.262
33517.1 69086.2 684.022
34160.2 69003.6 683.204
34909.4 69134.3 684.498
35784.8 69505.2 688.17
36555.1 69661.6 689.719
37276.1 69720 690.297
37894.9 69588.9 688.999
38735.3 69861.9 691.702
39573.5 70121.4 694.272
40456.4 70449.9 697.524
41102.5 70362 696.653
41793 70351.6 696.551
42607 70546 698.476
43330 70586 698.871
43607.4 69910.3 692.181
43716.1 68989.5 683.065
44094.1 68515.4 678.37
44475.7 68061.3 673.874
44883 67659.5 669.896
45295.4 67277 666.109
45839.4 67098.3 664.339
46415.8 66971.4 663.083
46876.1 66682.9 660.227
47384.8 66470.3 658.122
47886.7 66254.3 655.983
48299.5 65922.4 652.697
48618 65472.2 648.24
49018.1 65142.4 644.975
49430.2 64837.1 641.951
49820.5 64511.1 638.724
50072.2 64016.4 633.826
50409 63641.3 630.112
50810.4 63356.2 627.289
51163.2 63018 623.941
51433.4 62587.6 619.679
51710.5 62175.7 615.601
52187.3 62010.8 613.968
52612.6 61789.2 611.774
53062.2 61600.9 609.91
53542.2 61451.9 608.434
54069.9 61360.2 607.527
54591 61263.2 606.567
55117.5 61174.3 605.687
55739.2 61192 605.861
56273.4 61114.1 605.09
56822.3 61053.8 604.493
57353.8 60976.1 603.724
57799.3 60809.7 602.076
58237.7 60639.3 600.389
58712.3 60509.6 599.105
59356.9 60556 599.565
60001.1 60601.1 600.011
60661.2 60661.2 600.605
61259.8 60659.2 600.587
61859.9 60658.8 600.582
62397.7 60597.8 599.978
62934.2 60536.7 599.373
63414.4 60423.2 598.249
63924.7 60340.2 597.427
64570.3 60385.2 597.873
65235.9 60448 598.495
65962 60565.1 599.655
66509.1 60517.3 599.181
67037.7 60453.6 598.551
67448.9 60286.2 596.893
67950.6 60201.9 596.058
68444.3 60112 595.168
68955.7 60039 594.446
69515.9 60009.4 594.153
70051.1 59959 593.653
70690.9 59998.2 594.041
71246.9 59966.1 593.724
71940.2 60049.2 594.547
72645.5 60140.9 595.455
73351.2 60231.5 596.352
74206.4 60442.3 598.439
75074.2 60659.9 600.593
75794.9 60756.2 601.547
76333.9 60706.5 601.054
76997.9 60756.2 601.546
77859.1 60959.5 603.559
78753.5 61185.4 605.796
79449.2 61254.7 606.483
80298.1 61440.2 608.319
81024.3 61529.7 609.205
81933.9 61756.2 611.447
82743.7 61904.5 612.916
83636.7 62112.5 614.976
84405.2 62225.7 616.096
85709.4 62729.4 621.083
87340.5 63463.3 628.349
89106.2 64283.8 636.473
90142.5 64570.1 639.308
91052.3 64762.5 641.213
91730.9 64788.9 641.475
92356.7 64777.9 641.366
92929.7 64730.4 640.895
93455.8 64651 640.109
94113.9 64663.3 640.231
94904.7 64766.1 641.248
95800.1 64938.3 642.953
96619 65056.8 644.127
97623.4 65297.8 646.513
99059.6 65822.5 651.708
100991 66666.9 660.069
103173 67665.2 669.952
105245 68578.7 678.997
106691 69075.5 683.916
107991 69471.6 687.838
109899 70251.9 695.564
0 0 0
0 0 0
434718 272711 2700.11
438909 273641 2709.31
442048 273907 2711.95
444891 273988 2712.75
447162 273717 2710.07
449331 273388 2706.81
448640 271333 2686.47
441176 265231 2626.05
433191 258890 2563.26
431952 256631 2540.9
434089 256392 2538.53
437332 256805 2542.63
440233 257015 2544.7
442071 256604 2540.64
443920 256205 2536.68
446257 256091 2535.55
448139 255717 2531.86
450270 255490 2529.61
451186 254580 2520.59
453132 254258 2517.4
456127 254524 2520.04
0 0 0
0 0 0
0 0 0
0 0 0
0 0 0
0 0 0
0 0 0
0 0 0
0 0 0
0 0 0
0 0 0
0 0 0
0 0 0
0 0 0
465051 239644 2372.71
0 0 0
0 0 0
0 0 0
0 0 0
0 0 0
0 0 0
0 0 0
0 0 0
0 0 0
0 0 0
0 0 0
0 0 0
0 0 0
0 0 0
0 0 0
0 0 0
0 0 0
0 0 0
0 0 0
0 0 0
0 0 0
0 0 0
0 0 0
0 0 0
0 0 0
0 0 0
0 0 0
0 0 0
0 0 0
0 0 0
0 0 0
0 0 0
0 0 0
0 0 0
0 0 0
0 0 0
0 0 0
0 0 0
0 0 0
0 0 0
0 0 0
0 0 0
0 0 0
0 0 0
0 0 0
0 0 0
0 0 0
0 0 0
0 0 0
0 0 0
0 0 0
0 0 0
0 0 0
0 0 0
0 0 0
0 0 0
0 0 0
0 0 0
0 0 0
-0 0 0
-0 0 0
-0 0 0
-0 0 0
-0 0 0
-0 0 0
-0 0 0
-0 0 0
-0 0 0
-0 0 0
-0 0 0
-0 0 0
-0 0 0
-0 0 0
-0 0 0
-0 0 0
-0 0 0
-0 0 0
-0 0 0
-462641 199111 1952.07
-462619 199946 1960.25
-463066 200990 1970.49
-0 0 0
-0 0 0
-0 0 0
-618512 273109 2677.54
-612878 271798 2664.69
-618569 275520 2701.18
-621536 278056 2726.04
-614407 276077 2706.64
-609917 275272 2698.75
-615165 278875 2734.07
-620175 282401 2768.64
-623435 285159 2795.67
-625045 287183 2815.52
-628183 289930 2842.46
-628681 291479 2857.64
-629127 293018 2872.73
-627100 293414 2876.61
-623937 293279 2875.29
-623228 294302 2885.31
-629702 298742 2928.85
-630772 300648 2947.53
-631802 302553 2966.21
-633556 304824 2988.47
-635005 306969 3009.5
-636598 309205 3031.42
-635799 310294 3042.1
-635294 311538 3054.3
-641344 316025 3098.28
-641821 317795 3115.63
-639614 318247 3120.07
-641942 320971 3146.77
-642104 322634 3163.07
-638008 322162 3158.45
-635923 322707 3163.8
-637677 325215 3188.38
-639923 328001 3215.69
-641538 330489 3240.09
-641815 332310 3257.94
-642144 334177 3276.24
-640784 335180 3286.07
-639231 336090 3295
-640590 338550 3319.12
-641313 340697 3340.17
-642873 343314 3365.83
-643271 345335 3385.64
-642443 346715 3399.17
-641944 348289 3414.6
-642747 350589 3437.15
-641342 351704 3448.08
-640364 353066 3461.43
-638987 354221 3472.76
-637496 355326 3483.59
-631467 353899 3469.6
-0 0 0
-0 0 0
-428315 244068 2392.82
-427404 244917 2401.15
-426239 245629 2408.13
-423888 245662 2408.45
-422488 246250 2414.22
-419352 245827 2410.07
-416656 245658 2408.42
-413801 245394 2405.82
-411109 245223 2404.15
-408934 245360 2405.49
-407072 245688 2408.71
-404620 245662 2408.45
-401238 245067 2402.62
-396039 243349 2385.78
-386022 238632 2339.53
-375861 233767 2291.84
-371169 232265 2277.11
-367293 231258 2267.24
-363483 230281 2257.66
-358826 228751 2242.66
-355230 227883 2234.15
-352399 227498 2230.37
-349284 226924 2224.74
-345422 225853 2214.25
-342564 225429 2210.09
-339921 225142 2207.28
-337389 224926 2205.16
-334457 224438 2200.37
-332232 224422 2200.21
-330702 224877 2204.68
-328455 224848 2204.4
-326036 224701 2202.95
-322821 223998 2196.06
-320018 223574 2191.9
-316766 222829 2184.6
-313932 222368 2180.08
-311193 221970 2176.18
-308879 221871 2175.21
-306304 221582 2172.37
-303513 221131 2167.95
-300481 220497 2161.74
-298205 220413 2160.91
-296002 220381 2160.6
-293545 220159 2158.42
-0 0 0
-0 0 0
-0 0 0
-0 0 0
-0 0 0
-247370 194090 1902.85
-0 0 0
-0 0 0
-0 0 0
-0 0 0
-84723.4 69134.3 677.787
-84126 69200.4 678.435
-82900 68746.3 673.983
-82010.7 68566.3 672.219
-81113.8 68376.9 670.362
-80240.5 68204.4 668.67
-79311.2 67981.1 666.481
-78252.8 67642.3 663.159
-77181.4 67286.3 659.67
-76248.6 67046.2 657.316
-75475.6 66943.6 656.31
-74673.8 66813.4 655.034
-73850.8 66661.8 653.547
-73130.3 66600.8 652.949
-72580.8 66695.9 653.881
-71876.6 66649.2 653.424
-71280.5 66702.8 653.949
-70537.1 66618.4 653.121
-69950 66681.3 653.739
-69201.7 66590.3 652.846
-68337.3 66384.8 650.832
-66797.9 65513.3 642.287
-65225.1 64591.9 633.253
-64187 64187 629.284
-63291.6 63918.3 626.65
-62554.3 63805.4 625.543
-61896.7 63772.4 625.219
-61238.9 63738.5 624.887
-60600.9 63724.6 624.751
-59931.6 63677.3 624.287
-59452.3 63833 625.814
-58898.1 63910.7 626.575
-58337.1 63982.6 627.281
-57700.3 63972 627.177
-56998.2 63888.1 626.354
-56376.4 63893.3 626.405
-55760.8 63905.7 626.526
-55080.7 63843.6 625.917
-54376.3 63751.5 625.014
-53614.9 63589.7 623.429
-52921.4 63505.7 622.605
-52239 63433.1 621.893
-51589.9 63399.6 621.565
-50946.4 63372.4 621.298
-50346.1 63398.8 621.557
-49705.5 63374.5 621.319
-49103.2 63399.1 621.559
-48423.1 63322.6 620.809
-47871.1 63413.7 621.703
-47221.4 63376.1 621.334
-46549.5 63307.3 620.66
-45935 63315.8 620.743
-45458.5 63517.3 622.719
-44881 63581.5 623.348
-44125.3 63391.2 621.483
-43355.4 63175 619.363
-42657.5 63058.9 618.225
-42074.9 63112.4 618.749
-41617.6 63358.1 621.158
-41138.6 63577.8 623.312
-40572.9 63668.2 624.198
-39923.8 63628.6 623.81
-39418.2 63820 625.686
-38886.8 63975.1 627.206
-38325.2 64084.8 628.283
-37633.4 63976.9 627.224
-37081 64106.1 628.491
-36463.9 64126.1 628.687
-35905.6 64252.2 629.924
-35255 64214.5 629.554
-34689.4 64333.1 630.717
-34114.7 64438.9 631.754
-33502 64475.6 632.114
-32943.7 64620.3 633.532
-32422.6 64845.1 635.737
-31902.2 65080.4 638.043
-31328.4 65214.3 639.356
-30916.9 65698.3 644.101
-30787.7 66815.9 655.058
-30975.4 68684.5 673.377
-31008.9 70286.9 689.088
-30660.5 71076.7 696.83
-30181.4 71593 701.892
-29620.5 71935.6 705.251
-29104.2 72405.5 709.858
-28546.7 72794.1 713.668
-28083.5 73449.1 720.089
-27583.8 74040.8 725.89
-27019.6 74486.5 730.26
-26383.6 74753.6 732.878
-25708 74920.5 734.514
-25037.4 75112.2 736.394
-24352.9 75272.6 737.967
-23715 75591.6 741.095
-23006.7 75699.4 742.151
-22330.8 75924.6 744.359
-21502.8 75630.4 741.475
-20620.7 75118.2 736.453
-19640.1 74195.9 727.411
-18736.2 73503.5 720.623
-17877.6 72940.5 715.103
-17109.9 72716.9 712.911
-16430.1 72863.8 714.351
-15850.3 73487.6 720.466
-15362.1 74615.8 731.527
-14854.8 75759.4 742.739
-14305.4 76797.3 752.914
-13643.1 77310.8 757.949
-12912.1 77472.8 759.537
-12134.2 77355.3 758.385
-11351.4 77189.6 756.761
-10567.3 76990.7 754.811
-9769.38 76652 751.491
-8983.6 76360.6 748.633
-8200.28 76038.9 745.48
-7447.64 75965.9 744.764
-6695.86 75886.4 743.984
-5959.91 75988.8 744.989
-5234.49 76274 747.784
-4542.3 77219 757.049
-3842.38 78384.6 768.476
-3103.71 79144.6 775.927
-2337.22 79465.6 779.075
-1548.84 78990.9 774.421
-761.85 77708.7 761.85
0 76586.1 750.845
747.456 76240.5 747.456
1502.52 76628.4 751.259
2274.24 77324.2 758.08
3055.87 77924.7 763.968
3819.26 77912.9 763.852
4576.27 77796.6 762.712
5340.02 77811.7 762.859
6113.23 77943.6 764.153
6884.82 78028 764.98
7633.95 77866.3 763.395
8348.34 77411.9 758.94
9068.48 77082.1 755.707
9803.39 76918.9 754.107
10556.6 76912.3 754.043
11318.2 76963.5 754.544
12126.7 77307.7 757.919
12819.8 76918.9 754.107
13144.4 74485 730.245
13491.7 72429.2 710.09
14013.5 71468.9 700.675
14673.1 71269.4 698.719
15364.5 71235.6 698.389
16156.8 71651.9 702.47
16912.2 71876.8 704.674
17680.7 72137.1 707.226
18469.9 72458.9 710.381
19224.4 72625.6 712.016
19976.5 72771.5 713.446
20647.5 72622.2 711.982
21401.8 72766 713.392
22167.9 72939.6 715.095
22922.1 73064.1 716.315
23638.7 73065.1 716.324
24270.4 72811.2 713.835
24979.5 72797.4 713.7
25700.9 72819.2 713.914
26408.4 72801.4 713.74
26870.4 72125.7 707.115
27180.3 71087 696.932
27564.4 70289.1 689.109
28062 69812.7 684.439
28581.2 69411.6 680.506
29098.2 69023.7 676.703
29665.3 68769.5 674.21
30361.9 68820.4 674.71
31099 68958.7 676.065
31952.3 69343.3 679.836
32782.9 69663.6 682.977
33517.5 69771.1 684.03
34162.6 69691.7 683.252
34895.2 69790.4 684.219
35686.4 70000.3 686.277
36433.9 70118 687.432
37142.4 70157.9 687.822
37890.7 70270.1 688.922
38684.9 70461.8 690.802
39542.4 70760.1 693.726
40334.1 70932.4 695.416
41019.5 70915 695.245
41680.1 70856.2 694.668
42484.7 71040 696.471
43267.8 71182.5 697.867
43651.4 70673.8 692.88
43783.1 69779.3 684.11
44097.8 69199.7 678.428
44454.7 68702.7 673.556
44794.5 68194.6 668.574
45188.4 67782.5 664.535
45743.9 67621.5 662.956
46360.7 67554.2 662.296
46866.3 67329 660.088
47293.5 66999.1 656.854
47714.6 66669.8 653.625
48081.9 66275 649.755
48528.6 65998.9 647.048
48973.6 65727.8 644.39
49466.6 65527.2 642.424
49759.2 65069.7 637.938
50021.1 64584.2 633.178
50290.9 64120.9 628.637
50707.4 63853.8 626.017
51084.3 63543.8 622.979
51339.3 63091.7 618.546
51654.8 62723.7 614.938
52061.8 62474.2 612.492
52580.9 62363.4 611.406
53110.1 62267 610.46
53507.2 62019.7 608.036
54035.5 61928.3 607.14
54487.2 61752.2 605.413
55113.5 61775.6 605.643
55596.4 61639.5 604.309
56141 61574 603.667
56648.2 61469.3 602.64
57245.5 61463.6 602.584
57705.3 61311.9 601.097
58172.6 61171.2 599.718
58628.5 61021.6 598.25
59235.1 61030.2 598.335
59790.6 60986.4 597.906
60421.6 61019.9 598.234
61013.5 61013.5 598.172
61635.2 61036.8 598.4
62134 60939.2 597.443
62693.8 60902.6 597.084
63203.7 60818.7 596.261
63821.2 60838.9 596.459
64421.8 60842.8 596.498
65136.2 60953.1 597.58
65744.3 60962.9 597.676
66347 60967.6 597.721
66837.4 60869.8 596.763
67365.9 60808.1 596.158
67779.1 60644.5 594.554
68263.8 60547 593.598
68630.8 60347.8 591.645
69349.4 60458.5 592.73
69889.3 60412.8 592.282
70624.1 60535 593.48
71068.7 60408.4 592.239
71806.7 60531.3 593.444
72488 60604.7 594.164
73223.3 60721.8 595.312
74003 60873.5 596.799
74764.1 61007.5 598.113
75434.6 61066.1 598.688
75910.5 60967.5 597.72
76482.4 60946.9 597.519
77281.5 61106.3 599.081
78248.1 61394.7 601.909
79293.9 61740.3 605.297
80186 61961.9 607.47
80947.6 62080.1 608.628
81587.6 62104 608.863
82293.2 62177.1 609.58
83103.8 62327.8 611.057
83964.4 62513.6 612.879
85237.6 63001.7 617.664
86616.5 63560.3 623.14
88226.8 64279.5 630.191
89483.3 64732.6 634.634
90696.1 65147.9 638.705
91360.6 65166.3 638.885
91996.8 65164.4 638.866
92508.7 65075.1 637.991
93095.5 65039.3 637.64
93656.8 64986.3 637.121
94397.4 65057.6 637.82
95390.3 65300.8 640.204
96129 65367.7 640.86
96843 65417.1 641.344
97897.3 65694.2 644.061
99616.4 66410.9 651.087
101711 67366.8 660.458
103869 68352.6 670.124
105597 69043.9 676.901
107261 69685.3 683.189
109220 70509.3 691.268
0 0 0
0 0 0
433432 274597 2692.13
437471 275445 2700.44
440892 275895 2704.86
443750 275991 2705.79
446329 275913 2705.03
448516 275594 2701.9
448144 273717 2683.5
442502 268662 2633.94
432025 260749 2556.36
430429 258257 2531.93
432689 258095 2530.35
436500 258854 2537.79
439284 259000 2539.22
441412 258759 2536.85
443144 258290 2532.25
445440 258153 2530.91
447095 257648 2525.96
448893 257231 2521.87
449292 256021 2510.01
450904 255513 2505.02
0 0 0
0 0 0
0 0 0
0 0 0
0 0 0
0 0 0
0 0 0
0 0 0
0 0 0
0 0 0
0 0 0
0 0 0
0 0 0
0 0 0
0 0 0
0 0 0
0 0 0
0 0 0
0 0 0
0 0 0
0 0 0
0 0 0
0 0 0
0 0 0
0 0 0
0 0 0
0 0 0
0 0 0
0 0 0
0 0 0
0 0 0
0 0 0
0 0 0
0 0 0
0 0 0
0 0 0
0 0 0
0 0 0
0 0 0
0 0 0
0 0 0
0 0 0
0 0 0
0 0 0
0 0 0
0 0 0
0 0 0
0 0 0
0 0 0
0 0 0
0 0 0
0 0 0
0 0 0
0 0 0
0 0 0
0 0 0
0 0 0
0 0 0
0 0 0
0 0 0
0 0 0
0 0 0
0 0 0
0 0 0
0 0 0
0 0 0
0 0 0
0 0 0
0 0 0
0 0 0
0 0 0
0 0 0
0 0 0
0 0 0
0 0 0
-0 0 0
-0 0 0
-0 0 0
-0 0 0
-0 0 0
-0 0 0
-0 0 0
-0 0 0
-0 0 0
-0 0 0
-0 0 0
-0 0 0
-0 0 0
-0 0 0
-0 0 0
-0 0 0
-0 0 0
-0 0 0
-0 0 0
-463020 201228 1953.67
-460864 201140 1952.81
-462505 202715 1968.11
-0 0 0
-0 0 0
-606971 269474 2616.26
-608677 271402 2634.97
-609457 272931 2649.81
-613841 276094 2680.53
-626364 282963 2747.21
-619848 281252 2730.61
-612565 279178 2710.47
-617356 282612 2743.8
-621972 285996 2776.66
-621385 287007 2786.48
-625377 290153 2817.02
-630582 293891 2853.31
-630716 295290 2866.89
-628505 295598 2869.89
-626316 295920 2873.01
-626997 297607 2889.39
-627503 299226 2905.11
-629197 301429 2926.5
-632867 304604 2957.32
-632922 306061 2971.47
-631492 306810 2978.74
-633710 309347 3003.37
-633197 310568 3015.22
-636235 313551 3044.19
-637324 315598 3064.06
-639564 318237 3089.68
-639382 319691 3103.8
-639667 321394 3120.33
-641778 324035 3145.97
-641319 325398 3159.21
-640951 326821 3173.02
-638848 327370 3178.35
-639183 329179 3195.92
-640469 331499 3218.44
-642281 334116 3243.84
-642984 336180 3263.88
-642931 337867 3280.26
-640418 338272 3284.19
-639065 339297 3294.15
-638975 341007 3310.75
-639363 342991 3330.01
-641715 346056 3359.77
-643969 349099 3389.31
-641545 349625 3394.42
-640537 350933 3407.11
-640330 352695 3424.22
-639967 354390 3440.68
-639178 355867 3455.02
-638683 357524 3471.1
-637048 358557 3481.14
-0 0 0
-0 0 0
-429714 245892 2387.3
-431071 248046 2408.22
-428181 247767 2405.51
-426480 248178 2409.49
-424374 248355 2411.22
-422754 248821 2415.74
-419472 248308 2410.76
-416910 248218 2409.88
-414043 247944 2407.23
-411529 247880 2406.6
-409208 247932 2407.11
-407086 248106 2408.79
-403994 247687 2404.72
-398842 245992 2388.28
-387804 240626 2336.17
-378110 236032 2291.57
-373419 234525 2276.94
-369545 233516 2267.15
-365338 232283 2255.18
-360592 230689 2239.7
-356689 229619 2229.31
-353578 229047 2223.76
-351047 228847 2221.82
-347660 228083 2214.39
-344655 227561 2209.33
-341764 227108 2204.93
-339153 226836 2202.29
-336075 226247 2196.57
-333115 225730 2191.55
-330851 225680 2191.07
-329505 226260 2196.7
-327387 226315 2197.23
-324878 226098 2195.12
-321783 225467 2189
-319059 225090 2185.34
-316087 224531 2179.91
-313346 224129 2176.01
-310887 223926 2174.03
-308304 223629 2171.16
-305436 223120 2166.21
-302565 222601 2161.18
-300415 222609 2161.26
-298324 222662 2161.77
-295499 222163 2156.92
-291091 220459 2140.38
-0 0 0
-0 0 0
-0 0 0
-0 0 0
-0 0 0
-0 0 0
-0 0 0
-0 0 0
-0 0 0
-0 0 0
-84506 69633 676.048
-84012.3 69784.4 677.518
-82897.2 69418 673.961
-81983.8 69215.8 671.998
-81169.3 69094.5 670.821
-80303.9 68927.5 669.199
-79460.5 68776.7 667.735
-78507.8 68528 665.32
-77581.8 68298.5 663.092
-76476.4 67905.8 659.28
-75626.6 67735.1 657.622
-74831 67610.5 656.413
-74117.5 67558.4 655.907
-73346.2 67452.3 654.877
-72687.4 67448.7 654.842
-72023.9 67440.5 654.763
-71345.1 67417.9 654.542
-70593.2 67325 653.641
-69873.1 67261 653.02
-69158 67200.7 652.434
-68335.7 67034.1 650.816
-67032.7 66388.1 644.545
-65568.3 65568.3 636.586
-64520.1 65152.6 632.55
-63558.5 64817.1 629.292
-62899.1 64786.1 628.991
-62153.5 64664.7 627.813
-61575.8 64717.4 628.324
-60770 64529 626.495
-60196.6 64585.9 627.048
-59602.9 64622.1 627.399
-59128.2 64789.4 629.024
-58531.6 64825.3 629.372
-57935.1 64862.1 629.729
-57217.1 64762.2 628.759
-56557.5 64727 628.417
-55889.3 64680.8 627.969
-55308.8 64736.5 628.509
-54574.2 64610.8 627.29
-54039.7 64722 628.368
-53290 64575 626.942
-52619 64520.9 626.417
-51735.2 64201.5 623.315
-51085.8 64168.7 622.997
-50469 64176.7 623.075
-49899.6 64245.7 623.744
-49219.2 64171.9 623.028
-48539.2 64096.6 622.297
-47977.8 64178.1 623.088
-47374.9 64205.4 623.354
-46797.6 64268.7 623.968
-46155.4 64243.4 623.722
-45660 64424.4 625.479
-44974.9 64339.2 624.652
-44238 64176.2 623.07
-43515.9 64030.5 621.655
-42886.7 64019.3 621.546
-42359.3 64161.9 622.931
-41835.4 64314.2 624.409
-41299.7 64452.6 625.753
-40717.4 64521.4 626.422
-40101.1 64537.7 626.579
-39577.5 64706.1 628.215
-39018.5 64821.1 629.331
-38432.1 64893.5 630.034
-37771.5 64841.1 629.526
-37165.5 64882.1 629.924
-36572.3 64947.3 630.557
-35980.3 65017 631.233
-35359.8 65036.9 631.426
-34790.3 65152.8 632.551
-34216.6 65265 633.64
-33645 65385.6 634.811
-33105.3 65574 636.641
-32616.3 65872.1 639.535
-32138.3 66204.8 642.765
-31709.9 66655.5 647.141
-31565.6 67734.4 657.616
-31679.5 69425.4 674.033
-31764.4 71124.6 690.53
-31458.6 72005.2 699.08
-30889 72308.3 702.023
-30307 72595.9 704.815
-29748.2 72954 708.291
-29209.9 73381.1 712.438
-28654.5 73785.4 716.363
-28105.3 74226.9 720.65
-27631 74894.6 727.132
-27052.6 75308.6 731.152
-26473.3 75743 735.369
-25770.7 75839.4 736.305
-25082.7 75985.8 737.727
-24354.8 76016.4 738.023
-23699.5 76282.7 740.608
-23018.4 76480.6 742.53
-22340.7 76703 744.689
-21491 76330.3 741.071
-20579.5 75703.1 734.982
-19638.5 74917.4 727.353
-18743.9 74254.7 720.919
-17900.6 73750.5 716.024
-17144.2 73577.4 714.343
-16477.5 73790.4 716.411
-15902.8 74453.8 722.853
-15407.7 75571.1 733.701
-14915.8 76816.1 745.787
-14335.8 77715.1 754.515
-13661.9 78176.3 758.994
-12911.2 78226.9 759.485
-12156.1 78254.9 759.756
-11367.8 78059.1 757.855
-10588.6 77901.5 756.325
-9766.24 77378.7 751.249
-8984.94 77120.7 748.745
-8207.94 76856.2 746.176
-7460.58 76844 746.058
-6709.56 76787.2 745.506
-5966.36 76816.9 745.795
-5229.74 76951.9 747.106
-4526.16 77699.1 754.36
-3830.03 78898.6 766.006
-3097.69 79765.6 774.423
-2334.54 80152.4 778.179
-1555.41 80103.8 777.707
-768.944 79201.2 768.944
0 77780.9 755.155
748.251 77069.9 748.251
1499.12 77204.6 749.559
2269.09 77905.6 756.365
3052.65 78605.9 763.164
3822.68 78747.2 764.536
4586.22 78730.1 764.37
5352.4 78756.7 764.628
6124.22 78849.4 765.528
6884.12 78785 764.902
7629.3 78581.7 762.93
8358.1 78262.2 759.827
9085.19 77981.2 757.099
9823.22 77830.1 755.632
10577.2 77817.7 755.512
11338.2 77855.9 755.883
12142.6 78168 758.913
12844.1 77820 755.534
13254 75842.6 736.336
13600.9 73731.5 715.839
14099.8 72614 704.991
14689.9 72050.3 699.518
15383.6 72023.2 699.255
16175.9 72439.9 703.3
16972 72838.1 707.166
17701.3 72929.2 708.05
18445.1 73070.8 709.425
19199.9 73244.1 711.108
19990.5 73536.6 713.948
20697.6 73512.3 713.711
21447.6 73636.9 714.921
22198.2 73755.4 716.072
22957.1 73893.2 717.409
23682.9 73919.5 717.665
24341.7 73741 715.932
24992.4 73549.2 714.069
25704.6 73543.6 714.016
26426.2 73564.9 714.223
26968 73097.4 709.683
27339.3 72203.8 701.008
27720.7 71380.8 693.017
28179.4 70792.1 687.302
28631.7 70215.8 681.707
29128.8 69773.6 677.413
29709.4 69547.1 675.215
30374.9 69524.7 674.997
31113.2 69666.6 676.374
31969.8 70061.6 680.209
32850.3 70491.2 684.38
33615 70660.2 686.021
34262.5 70580.7 685.249
34980.8 70647.6 685.899
35745.6 70803.7 687.415
36453.9 70844.4 687.81
37196.6 70949.1 688.826
37960.6 71089.8 690.192
38823.8 71408 693.282
39596 71550.6 694.666
40335.3 71629.9 695.436
41011.6 71596.5 695.112
41697.1 71580.1 694.952
42492.6 71749.8 696.6
43289.6 71916.5 698.219
43952.6 71859 697.66
44247.6 71211 691.369
44405.2 70365.1 683.157
44621.4 69636.4 676.082
44969.9 69132.8 671.192
45454.4 68850 668.447
46005.1 68674.3 666.74
46628.3 68610.2 666.119
47178.9 68442.6 664.492
47571.7 68054 660.718
47901.2 67586.7 656.181
48287.4 67210.9 652.533
48813 67036.6 650.841
49298 66811.7 648.657
49742 66537.9 645.999
50086 66139.1 642.128
50350.6 65647 637.349
50626.4 65181.5 632.83
50970.8 64814.7 629.269
51397.7 64560.5 626.801
51667.2 64117.1 622.496
51954.1 63705.7 618.502
52312.7 63390.6 615.443
52878.3 63331 614.864
53449.5 63279.2 614.362
53881.9 63066.3 612.295
54353 62902.9 610.708
54831.3 62751.3 609.236
55416.2 62723.9 608.97
55849 62526.6 607.054
56393.1 62456.9 606.377
56972.3 62427.1 606.088
57480.7 62321.1 605.06
58010.4 62240.3 604.275
58476.9 62094 602.855
59114.8 62130.9 603.212
59632.2 62041.6 602.346
60160.5 61965.3 601.605
60740 61942.8 601.387
61317.8 61919 601.155
61936.6 61936.6 601.326
62407.1 61807.1 600.069
62972 61772.5 599.733
63452.9 61657 598.612
64106.3 61709.8 599.124
64614.6 61623.2 598.283
65240.5 61649.3 598.537
65786.5 61600.1 598.059
66397.8 61612.4 598.178
67021 61635.4 598.402
67654 61666.9 598.708
68158.9 61582.2 597.885
68616.5 61456.5 596.665
68963.1 61234.4 594.509
69653.2 61318.6 595.326
70262.5 61330.8 595.445
70939.9 61401.7 596.133
71446.4 61324.9 595.387
72131.6 61401.3 596.129
72892.9 61540.7 597.483
73709.4 61724.1 599.263
74395.3 61796.1 599.962
75002.2 61801.8 600.018
75645.1 61836.9 600.358
76206.9 61805.6 600.054
76868.3 61854.9 600.533
77576.3 61940.7 601.366
78535.8 62224.5 604.121
79474.8 62487.8 606.678
80330.1 62681.9 608.562
81143.5 62840.4 610.101
81820.5 62891.9 610.601
82506.5 62949.4 611.159
83206.5 63016.7 611.812
84088.1 63219.5 613.781
85335.2 63692.2 618.371
86883.8 64381.5 625.063
88595.5 65180.9 632.825
89756.6 65566.9 636.572
90657.5 65758.6 638.433
91310 65768.8 638.532
91993.3 65800.8 638.842
92699.7 65848.8 639.308
93173.2 65731.8 638.172
93729.9 65674.7 637.618
94455.8 65736.1 638.215
95432.5 65970.1 640.487
96205.9 66061.4 641.372
96967.8 66143.6 642.171
97924.1 66356.5 644.237
99363 66891.4 649.431
101026 67569.6 656.016
103043 68473.9 664.795
105098 69391.5 673.704
107082 70251 682.048
109236 71210.8 691.367
0 0 0
0 0 0
432208 276506 2684.52
436697 277653 2695.66
440144 278128 2700.27
442927 278180 2700.77
445519 278112 2700.11
448098 278037 2699.39
448425 276573 2685.18
0 0 0
433858 264422 2567.21
430395 260769 2531.74
432566 260551 2529.62
436339 261296 2536.85
439002 261371 2537.58
441311 261236 2536.27
442706 260564 2529.75
444464 260112 2525.36
445782 259410 2518.55
447509 258952 2514.1
448587 258126 2506.07
450280 257660 2501.56
451988 257209 2497.17
0 0 0
0 0 0
0 0 0
0 0 0
0 0 0
0 0 0
0 0 0
0 0 0
0 0 0
0 0 0
0 0 0
0 0 0
0 0 0
0 0 0
0 0 0
0 0 0
0 0 0
0 0 0
0 0 0
0 0 0
0 0 0
0 0 0
0 0 0
0 0 0
0 0 0
0 0 0
0 0 0
0 0 0
0 0 0
0 0 0
0 0 0
0 0 0
0 0 0
0 0 0
0 0 0
0 0 0
0 0 0
0 0 0
0 0 0
0 0 0
0 0 0
0 0 0
0 0 0
0 0 0
0 0 0
0 0 0
0 0 0
0 0 0
0 0 0
0 0 0
0 0 0
0 0 0
0 0 0
0 0 0
0 0 0
0 0 0
0 0 0
0 0 0
0 0 0
0 0 0
0 0 0
0 0 0
0 0 0
0 0 0
0 0 0
0 0 0
0 0 0
0 0 0
0 0 0
0 0 0
0 0 0
0 0 0
0 0 0
0 0 0
-0 0 0
-0 0 0
-0 0 0
-0 0 0
-0 0 0
-0 0 0
-0 0 0
-0 0 0
-0 0 0
-0 0 0
-0 0 0
-0 0 0
-0 0 0
-0 0 0
-0 0 0
-0 0 0
-0 0 0
-0 0 0
-0 0 0
-463005 203175 1953.61
-464407 204654 1967.83
-467201 206761 1988.09
-0 0 0
-0 0 0
-609764 273343 2628.29
-606740 273164 2626.58
-608195 275010 2644.33
-614166 278922 2681.95
-610160 278319 2676.14
-611354 280092 2693.19
-612254 281745 2709.09
-624309 288569 2774.71
-617294 286601 2755.78
-620083 289187 2780.64
-622197 291480 2802.69
-623238 293288 2820.08
-624374 295158 2838.06
-626283 297413 2859.74
-626667 298960 2874.62
-628708 301316 2897.27
-630983 303807 2921.22
-630308 304893 2931.67
-628852 305610 2938.56
-631543 308359 2964.99
-628867 308501 2966.36
-629163 310109 2981.81
-635257 314604 3025.04
-636339 316647 3044.68
-637990 318995 3067.26
-640835 321965 3095.82
-639708 322959 3105.38
-639684 324523 3120.41
-641074 326822 3142.52
-642850 329342 3166.75
-640787 329910 3172.21
-641370 331853 3190.89
-639484 332532 3197.42
-638968 333933 3210.89
-639230 335757 3228.43
-639986 337861 3248.66
-639803 339487 3264.3
-639248 340932 3278.2
-640579 343403 3301.95
-639106 344389 3311.43
-638847 346042 3327.33
-642069 349608 3361.62
-644628 352849 3392.78
-640269 352317 3387.67
-638660 353302 3397.13
-637241 354401 3407.71
-638004 356734 3430.13
-639192 359330 3455.09
-639802 361627 3477.18
-638170 362676 3487.27
-0 0 0
-429913 247022 2375.21
-432378 249819 2402.1
-431993 250990 2413.37
-428782 250524 2408.89
-426417 250550 2409.13
-424044 250571 2409.34
-421936 250751 2411.06
-418731 250276 2406.5
-415976 250066 2404.49
-413384 249953 2403.4
-411069 250007 2403.91
-408905 250154 2405.33
-406038 249869 2402.59
-401896 248793 2392.24
-392675 244540 2351.34
-380401 238324 2291.57
-375452 236649 2275.47
-372010 235909 2268.35
-367530 234497 2254.78
-362516 232726 2237.75
-357219 230750 2218.75
-354574 230473 2216.09
-351816 230119 2212.68
-349728 230201 2213.47
-346456 229500 2206.73
-343352 228901 2200.97
-340743 228628 2198.34
-338052 228295 2195.14
-334994 227708 2189.5
-331894 227085 2183.51
-329578 226994 2182.64
-327824 227291 2185.49
-325641 227293 2185.51
-322959 226944 2182.16
-319784 226242 2175.4
-317230 225972 2172.81
-314547 225606 2169.29
-312196 225475 2168.03
-309706 225241 2165.78
-307488 225202 2165.41
-304512 224605 2159.66
-301630 224068 2154.5
-299509 224093 2154.74
-297552 224242 2156.17
-294287 223400 2148.08
-288221 220404 2119.27
-0 0 0
-0 0 0
-0 0 0
-0 0 0
-0 0 0
-0 0 0
-0 0 0
-0 0 0
-0 0 0
-83217.6 68687.5 660.457
-84328.6 70161.4 674.629
-83813 70294.8 675.912
-82691.1 69917.7 672.285
-81654.7 69607.2 669.3
-80939.8 69568.1 668.924
-80105 69424.4 667.542
-79283.8 69290.1 666.251
-78238.7 68956.1 663.039
-77236.4 68654.6 660.141
-76160 68281.4 656.552
-75316.5 68112.3 654.926
-74489.6 67955.5 653.418
-73821.8 67942.1 653.29
-73048.8 67831 652.221
-72411.7 67845.2 652.358
-71842.5 67923.8 653.113
-71202.3 67936.1 653.232
-70409.4 67801.6 651.939
-69590.4 67639.3 650.378
-68853.8 67554.7 649.564
-68209.1 67559.5 649.611
-66932.6 66932.6 643.583
-65338.2 65972.6 634.352
-64188.3 65446.9 629.297
-63329.8 65210.9 627.028
-62814.7 65327.3 628.147
-62259 65403.4 628.879
-61670.1 65445.9 629.287
-60811.8 65200.3 626.926
-60034.8 65037.7 625.362
-59390 65016.4 625.158
-58900.7 65166.7 626.603
-58365.6 65269.1 627.587
-57771.7 65307.1 627.953
-57095.1 65251.6 627.419
-56387 65158.3 626.522
-55726 65118 626.135
-55120.6 65142.5 626.37
-54389.4 65017.2 625.166
-53878.9 65155.9 626.499
-53207.8 65101.4 625.975
-52532.2 65039.9 625.383
-51719.4 64805 623.125
-50987.1 64666.6 621.794
-50349.9 64646.8 621.604
-49711.2 64624.6 621.39
-49081.8 64614 621.289
-48462 64616 621.308
-47852.5 64631.9 621.461
-47218.9 64615.3 621.301
-46683.9 64735.1 622.453
-46042.3 64708.1 622.193
-45568.5 64919.5 624.226
-44829.9 64754.3 622.638
-44193.9 64734.7 622.449
-43466.3 64578.5 620.947
-42844.8 64577.6 620.939
-42253 64622.2 621.367
-41705.7 64737.2 622.473
-41150.8 64843.6 623.496
-40589.9 64943.9 624.46
-39973.9 64957.5 624.592
-39430.5 65091.7 625.881
-38835.2 65143 626.375
-38297.6 65294.3 627.83
-37679.2 65310.6 627.987
-37090 65378.9 628.644
-36454.5 65366.6 628.525
-35854.2 65418.2 629.021
-35231 65429 629.125
-34697.5 65609.8 630.864
-34127.7 65727.4 631.995
-33609.7 65951.2 634.146
-33066.3 66132.6 635.891
-32656.7 66594 640.327
-32287.9 67158.9 645.758
-32123.8 68181.1 655.588
-32242.3 69858.4 671.715
-32323.3 71523.9 687.73
-32069.6 72505.1 697.165
-31520.6 72847.5 700.457
-30867.7 72960.1 701.539
-30229.2 73112.4 703.004
-29642.5 73400.5 705.774
-29083.2 73772 709.347
-28588.5 74330.2 714.713
-28077.4 74873.1 719.933
-27551.7 75404.7 725.045
-26964.3 75791.4 728.764
-26364.4 76163.7 732.343
-25705.7 76382.5 734.448
-24996.9 76461.2 735.204
-24259.2 76453.1 735.126
-23585.8 76654 737.058
-22946.7 76982.3 740.215
-22249.1 77130.2 741.636
-21366.2 76623.6 736.765
-20419.9 75845.2 729.281
-19537.5 75255.7 723.613
-18687.6 74750.4 718.753
-17836.1 74198.1 713.444
-17084.6 74033.4 711.86
-16418.6 74240.4 713.85
-15882.1 75078.8 721.912
-15402.6 76279.5 733.457
-14899.3 77476.5 744.966
-14309.6 78326.2 753.136
-13603 78595.4 755.725
-12856.6 78652.3 756.272
-12096.3 78626.1 756.021
-11339.8 78622.5 755.986
-10557.3 78425.6 754.092
-9742.09 77936.7 749.392
-8945.85 77530.7 745.487
-8181.96 77356.7 743.815
-7430.66 77278.9 743.066
-6692.2 77332.1 743.577
-5941.24 77236.1 742.655
-5201.21 77275.1 743.03
-4485.99 77757.1 747.664
-3796.89 78975.4 759.379
-3078.02 80028.6 769.505
-2323.59 80551.3 774.531
-1554.03 80809.7 777.016
-772.28 80317.1 772.28
0 78765.3 757.359
746.707 77657.5 746.707
1489.93 77476.2 744.964
2252.84 78098.4 750.946
3031.01 78806.2 757.752
3805.79 79160.5 761.158
4573.42 79272.6 762.236
5339.41 79328.4 762.773
6103.88 79350.4 762.985
6847.7 79129 760.856
7584.94 78883.3 758.494
8308.24 78550.6 755.294
9036.59 78317.1 753.049
9765.67 78125.4 751.206
10521.6 78160.6 751.544
11284.3 78237.8 752.287
12088.5 78575.2 755.531
12835.9 78525.4 755.052
13328 77006.4 740.446
13563.5 74242.2 713.867
14001.5 72807.9 700.076
14568.2 72147.3 693.724
15277 72218.6 694.41
16066.8 72650.1 698.559
16869.1 73099.6 702.881
17604.2 73233.6 704.169
18326.5 73305.9 704.864
19072.8 73465.6 706.4
19871.2 73807.4 709.687
20621.8 73954 711.096
21366.9 74071.8 712.229
22100.5 74143.7 712.92
22830 74197.5 713.438
23536.5 74175.5 713.226
24219.8 74084.1 712.347
24876.3 73918.1 710.751
25584.4 73910.4 710.677
26319.8 73980 711.346
26879.2 73564.1 707.347
27254.6 72678.8 698.835
27597.7 71754 689.942
28031.5 71104.3 683.695
28483.3 70530.2 678.175
29001.5 70143.1 674.453
29598.6 69960.3 672.695
30287 69996.6 673.045
31017.5 70126.5 674.293
31869 70518.7 678.065
32752.5 70963.7 682.344
33512 71127.5 683.918
34218.2 71173.9 684.365
34912.9 71194.9 684.566
35717 71433.9 686.865
36416.1 71458.1 687.097
37138.6 71526.2 687.751
37910.1 71684.5 689.274
38766.2 71994.5 692.254
39523.7 72113.4 693.398
40166.1 72022 692.519
40820.5 71954.8 691.874
41525.7 71977.9 692.095
42333.2 72174.6 693.987
43076.7 72257.7 694.786
43874.6 72427.9 696.422
44382.5 72121.6 693.477
44525.6 71240.9 685.009
44563.8 70221.7 675.208
44843.5 69607.9 669.306
45345.1 69351.4 666.84
45838.1 69089.3 664.32
46361.3 68879.6 662.304
46880.9 68670.6 660.294
47390.5 68453 658.202
47790.3 68084.8 654.661
48175.2 67705.7 651.016
48654.7 67467.8 648.729
49112.7 67206.8 646.219
49545.4 66918.4 643.446
49862.4 66483.2 639.261
50218.8 66110.8 635.681
50507.3 65659.4 631.341
50942.2 65407.3 628.917
51353.6 65131.4 626.263
51608.3 64665.8 621.787
51845.2 64189.4 617.205
52172.1 63834.1 613.79
52720.9 63755.5 613.034
53282.8 63694.4 612.446
53672.9 63431.6 609.919
54231.2 63371.2 609.339
54671.9 63176.4 607.465
55351.4 63258.8 608.257
55723.9 62992.2 605.695
56258.5 62912.8 604.931
56776.9 62817 604.009
57263.9 62688.9 602.778
57807.2 62624.5 602.158
58286.7 62492.9 600.893
58999.1 62611.3 602.031
59559.6 62567.7 601.612
60124 62528.9 601.24
60724.8 62528.5 601.236
61212.6 62412.8 600.123
61833.3 62433.6 600.323
62222.4 62222.4 598.293
62780.4 62182.4 597.908
63234.9 62041.8 596.556
63925.3 62133 597.433
64433 62046.6 596.602
64966.7 61986.6 596.025
65513.6 61940.1 595.578
66162.9 61990.5 596.062
66726.2 61960.1 595.77
67308.1 61947.3 595.647
67831.6 61881.5 595.014
68447.3 61900.2 595.194
68822.5 61703 593.298
69486.7 61766 593.904
69988.2 61684.5 593.121
70666 61758.5 593.832
71239.5 61740.9 593.663
72001.8 61885.8 595.056
72697.3 61971.5 595.88
73512.8 62157.2 597.665
74124.3 62168.8 597.776
74852.9 62277.6 598.823
75469.6 62292.4 598.965
76194 62395.1 599.953
76709.2 62326.2 599.291
77429.4 62423.7 600.228
78229.1 62583.2 601.762
79249.5 62915.6 604.958
80003.9 63033.4 606.09
80856 63225.8 607.94
81582 63317.4 608.821
82300.9 63402.2 609.636
83057.4 63514.5 610.716
83856.2 63657.2 612.089
85035.1 64084.5 616.197
86483.3 64706.9 622.182
88051.1 65409.4 628.936
89208.4 65799.1 632.684
90086 65978.5 634.408
90913.1 66118.6 635.756
91652 66193.1 636.472
92396.5 66270.6 637.217
92923.4 66192 636.462
93498.5 66148.6 636.044
94137.6 66150.7 636.065
94972.9 66289.8 637.402
95685.1 66341.7 637.901
96440.9 66422.9 638.681
97205.1 66508.8 639.508
98473.1 66936 643.615
99887.9 67456.8 648.623
101686 68228.1 656.039
103778 69185.1 665.241
106039 70242.3 675.407
108560 71457.1 687.088
0 0 0
0 0 0
431169 278519 2678.07
435402 279517 2687.67
438280 279639 2688.84
441286 279840 2690.77
444036 279877 2691.13
446469 279715 2689.57
447629 278763 2680.42
0 0 0
0 0 0
430360 263279 2531.53
432298 262918 2528.06
435245 263171 2530.49
437333 262905 2527.94
439888 262922 2528.09
441539 262400 2523.08
443469 262050 2519.71
444499 261175 2511.29
446188 260694 2506.67
447337 259906 2499.09
448740 259272 2493
0 0 0
0 0 0
0 0 0
0 0 0
0 0 0
0 0 0
0 0 0
0 0 0
0 0 0
0 0 0
0 0 0
0 0 0
0 0 0
0 0 0
0 0 0
0 0 0
0 0 0
0 0 0
0 0 0
0 0 0
0 0 0
0 0 0
0 0 0
0 0 0
0 0 0
0 0 0
0 0 0
0 0 0
0 0 0
0 0 0
0 0 0
0 0 0
0 0 0
0 0 0
0 0 0
0 0 0
0 0 0
0 0 0
0 0 0
0 0 0
0 0 0
0 0 0
0 0 0
0 0 0
0 0 0
0 0 0
0 0 0
0 0 0
0 0 0
0 0 0
0 0 0
0 0 0
0 0 0
0 0 0
0 0 0
0 0 0
0 0 0
0 0 0
0 0 0
0 0 0
0 0 0
0 0 0
0 0 0
0 0 0
0 0 0
0 0 0
0 0 0
0 0 0
0 0 0
0 0 0
0 0 0
0 0 0
0 0 0
0 0 0
0 0 0
-0 0 0
-0 0 0
-0 0 0
-0 0 0
-0 0 0
-0 0 0
-0 0 0
-0 0 0
-0 0 0
-0 0 0
-0 0 0
-0 0 0
-0 0 0
-0 0 0
-0 0 0
-460945 200827 1912.64
-0 0 0
-0 0 0
-0 0 0
-462565 204934 1951.75
-465634 207168 1973.03
-472788 211246 2011.87
-0 0 0
-0 0 0
-609821 275997 2628.54
-613157 278708 2654.36
-609825 278398 2651.41
-610021 279704 2663.85
-613927 282730 2692.66
-613320 283694 2701.85
-0 0 0
-615479 287223 2735.46
-620692 290949 2770.95
-617302 290658 2768.17
-621709 294052 2800.49
-621317 295196 2811.39
-623089 297383 2832.22
-625657 299972 2856.88
-625926 301478 2871.22
-628121 303929 2894.57
-631500 306979 2923.61
-629719 307537 2928.93
-629703 308966 2942.54
-626076 308629 2939.33
-624392 309251 2945.25
-633594 315296 3002.81
-637220 318610 3034.38
-638932 320994 3057.09
-636712 321417 3061.12
-636220 322720 3073.53
-636537 324448 3089.98
-640311 327964 3123.47
-640294 329563 3138.7
-639982 331025 3152.62
-642986 334226 3183.1
-641500 335112 3191.54
-639586 335782 3197.93
-637487 336363 3203.45
-637558 338099 3219.99
-636496 339249 3230.95
-638051 341813 3255.36
-640878 345088 3286.56
-640386 346601 3300.96
-638190 347202 3306.68
-639491 349722 3330.68
-644323 354209 3373.42
-644531 356188 3392.27
-642020 356678 3396.93
-638171 356425 3394.52
-636656 357481 3404.58
-637968 360143 3429.94
-639271 362829 3455.52
-640815 365683 3482.69
-0 0 0
-0 0 0
-433453 251450 2394.77
-433773 253034 2409.85
-432576 253746 2416.63
-429631 253434 2413.66
-427125 253379 2413.13
-423924 252909 2408.66
-421294 252776 2407.39
-418067 252282 2402.68
-415507 252186 2401.77
-413019 252134 2401.27
-410450 252031 2400.29
-408082 252051 2400.48
-404321 251205 2392.43
-397286 248304 2364.8
-384780 241928 2304.07
-378694 239536 2281.29
-374501 238319 2269.7
-370830 237421 2261.16
-365366 235358 2241.51
-360621 233736 2226.06
-356860 232735 2216.52
-354048 232344 2212.8
-351278 231976 2209.29
-348872 231845 2208.05
-345743 231229 2202.18
-342776 230715 2197.28
-340022 230337 2193.69
-337756 230288 2193.22
-334754 229733 2187.94
-331995 229338 2184.17
-329370 229032 2181.26
-327620 229334 2184.13
-325041 229056 2181.49
-322257 228628 2177.41
-318747 227677 2168.35
-316232 227427 2165.97
-314002 227381 2165.53
-312137 227600 2167.62
-309984 227610 2167.72
-307382 227290 2164.66
-303597 226083 2153.17
-300237 225177 2144.55
-298584 225549 2148.08
-296437 225550 2148.1
-292861 224455 2137.67
-285924 220750 2102.39
-0 0 0
-0 0 0
-0 0 0
-0 0 0
-0 0 0
-0 0 0
-0 0 0
-0 0 0
-79968.3 66115.5 629.671
-82950.1 69125.1 658.334
-84503 70982.5 676.024
-83786.8 70948.5 675.7
-82804.9 70687.1 673.211
-81909 70495.5 671.385
-81180.9 70446.2 670.916
-80312.8 70273.7 669.273
-79437.6 70092 667.543
-78501.3 69852.9 665.266
-77558.6 69603.9 662.894
-76521 69264.7 659.663
-75541.3 68972.5 656.881
-74706.9 68809 655.323
-73968.9 68732.2 654.592
-73220.8 68644.5 653.757
-72463.7 68546.8 652.826
-71916.6 68647.7 653.787
-71248.3 68633.7 653.654
-70533.6 68574.3 653.089
-69683 68380.5 651.243
-68931 68280.7 650.292
-68349.9 68349.9 650.952
-67331.7 67979.1 647.42
-65817.7 67095.7 639.007
-64568.5 66467.5 633.024
-63612.9 66132.2 629.83
-63173.2 66331.9 631.732
-62532.6 66322.4 631.642
-61955.4 66380.8 632.198
-61043 66077.5 629.309
-60369.3 66028.9 628.847
-59682.3 65964.7 628.235
-59140.7 66061.4 629.156
-58559.8 66116 629.676
-57973.6 66165.5 630.148
-57357.7 66182 630.305
-56591 66022.8 628.789
-55914.5 65966.6 628.253
-55235 65905.4 627.67
-54601.3 65898.1 627.601
-54052.1 65993.9 628.513
-53396.6 65960.5 628.195
-52660.9 65826.1 626.915
-51941.4 65709 625.8
-51291 65677.4 625.5
-50640.1 65644.6 625.187
-49944.2 65551.8 624.303
-49200.2 65392.6 622.787
-48620 65450 623.333
-47946.8 65381.9 622.685
-47363.8 65436.8 623.208
-46770.4 65478.6 623.606
-46209.8 65567.9 624.456
-45668.2 65687.2 625.592
-44953.6 65557.4 624.356
-44290.5 65500.1 623.81
-43645.7 65468.5 623.509
-43042.2 65499.1 623.801
-42561.9 65720.6 625.911
-41949.9 65742.3 626.117
-41370.9 65817.3 626.831
-40696.7 65740.8 626.103
-40094.7 65780.4 626.48
-39535.8 65893 627.552
-38950.2 65964 628.229
-38399.4 66097.4 629.499
-37841.8 66223.1 630.696
-37219.3 66237.7 630.835
-36589.1 66238.9 630.846
-35943.5 66211.8 630.588
-35359.8 66299.6 631.425
-34775.9 66390.3 632.288
-34226.6 66551.8 633.827
-33741.5 66846.4 636.632
-33315 67270.6 640.673
-33000.9 67943.1 647.077
-32851.8 68988.7 657.035
-32932.7 70570.1 672.097
-33030.1 72253.4 688.128
-32788.7 73251.5 697.633
-32268.5 73656.3 701.489
-31648.9 73847.3 703.308
-30965.1 73894 703.752
-30320 74037.3 705.117
-29661.3 74153.3 706.221
-29131.4 74604.8 710.522
-28653.6 75215.6 716.339
-28176.4 75859.5 722.472
-27587.5 76228.5 725.986
-26973.8 76547.3 729.022
-26372.7 76920.4 732.575
-25739.2 77217.7 735.406
-25048.7 77356.2 736.726
-24313.4 77360.7 736.769
-23634.6 77550.9 738.58
-22963.5 77779.5 740.757
-22236.1 77826.2 741.202
-21347.1 77291.1 736.105
-20437.9 76642 729.924
-19538.1 75981.5 723.633
-18668.2 75390.7 718.007
-17826.9 74873.2 713.078
-17099.7 74811.2 712.487
-16451.8 75106 715.296
-15931.8 76038 724.171
-15492.7 77463.4 737.747
-14999.4 78747 749.971
-14377.4 79454.2 756.706
-13631.7 79518.4 757.318
-12863 79448 756.648
-12094.8 79371.8 755.922
-11339.1 79373.5 755.938
-10573.2 79299.2 755.231
-9766.69 78884.8 751.284
-8957.59 78378.9 746.465
-8184.69 78126.6 744.063
-7435.88 78076.8 743.588
-6700.83 78176.4 744.537
-5951.87 78118.3 743.984
-5205.59 78083.9 743.656
-4482.59 78445.4 747.099
-3785.49 79495.2 757.097
-3074.51 80705.8 768.627
-2321.7 81259.5 773.9
-1553.29 81547.8 776.646
-775.059 81381.2 775.059
0 80108.5 762.938
750.482 78800.6 750.482
1490.33 78242.2 745.164
2246.23 78618.1 748.744
3019.91 79272.6 754.977
3803.29 79869.1 760.658
4578.33 80120.8 763.055
5341.81 80127.1 763.115
6101.2 80078.3 762.65
6843.46 79840.3 760.384
7581.59 79606.7 758.159
8313.85 79359.5 755.805
9050.47 79191.6 754.206
9786.86 79047.7 752.836
10537.3 79029.6 752.663
11285.6 78999.4 752.375
12068.8 79201.5 754.3
12869.7 79489 757.038
13522.3 78879.8 751.237
13733.2 75894 722.8
14096.9 74008.8 704.845
14602.6 73013.1 695.363
15282.2 72937.6 694.644
16012.4 73100 696.19
16826.8 73617.1 701.115
17589.2 73874.4 703.566
18324.5 74002.7 704.788
19074.2 74177.3 706.45
19878.8 74545.5 709.957
20667.5 74830.7 712.673
21407.6 74926.5 713.585
22113.6 74900.9 713.342
22824 74891.3 713.251
23523.5 74847.5 712.834
24227 74818.6 712.558
24906.8 74720.5 711.624
25605.2 74681.8 711.255
26337.2 74740.8 711.817
26921.2 74387.5 708.452
27374.4 73700.2 701.907
27749.4 72842.2 693.735
28177 72160.7 687.245
28607.4 71518.5 681.129
29077.1 71002.2 676.211
29645.2 70744.3 673.755
30297.4 70693.9 673.276
31077.6 70938 675.6
31872 71203.4 678.128
32778.1 71702.1 682.877
33526.5 71842.4 684.213
34303 72036.3 686.06
35010.1 72079.6 686.472
35839 72367.1 689.211
36593.9 72497.4 690.452
37304.5 72536.5 690.824
38012.1 72568.6 691.129
38825.6 72798 693.314
39563 72879.2 694.088
40259.5 72883.6 694.13
40951.2 72879.3 694.089
41678 72936.5 694.634
42443.9 73059.2 695.802
43187.4 73140 696.571
44072.5 73454.2 699.564
44767.7 73447 699.495
45016.3 72718.7 692.559
44958.2 71524.4 681.185
45162.1 70776.4 674.061
45653.2 70493.9 671.37
46093.7 70142.6 668.024
46616 69924 665.943
47053 69585.4 662.719
47643.2 69479.7 661.711
48064.4 69133.8 658.417
48575 68924 656.419
48972.5 68561.5 652.966
49379.3 68221.3 649.727
49663.9 67723.5 644.986
49995.1 67301 640.962
50342.4 66910.8 637.246
50723.1 66574.1 634.039
51145.6 66299.9 631.428
51560.8 66023 628.791
51858.3 65603.9 624.799
52160.5 65200.6 620.958
52521.7 64879.7 617.902
53028.5 64744.1 616.611
53457.2 64517.3 614.451
53921.5 64338.1 612.744
54409.6 64191.1 611.343
54910.6 64062.4 610.118
55404.2 63927.9 608.837
55932.8 63836.3 607.965
56453.9 63738.3 607.032
57047.4 63723.1 606.887
57503.1 63556 605.296
58057.3 63500.2 604.763
58588.9 63421 604.009
59310.7 63547.2 605.211
59912.8 63543.9 605.18
60397.2 63417 603.972
60893.5 63305.2 602.906
61394.9 63200.6 601.91
62067.3 63272.5 602.596
62491.7 63092.6 600.882
63023.3 63023.3 600.222
63523.5 62924.3 599.279
64162.3 62963 599.647
64691.1 62894.1 598.992
65122.5 62732.7 597.454
65795.6 62804.9 598.142
66376.1 62788.2 597.983
66997.8 62810.4 598.194
67524.9 62744.3 597.565
68132.8 62753.9 597.656
68763.4 62784 597.942
69280.8 62711 597.248
69822.7 62661.4 596.776
70330.4 62582.2 596.021
70858.8 62522.4 595.452
71567.1 62621.2 596.393
72181.8 62637.1 596.544
72912.7 62752.7 597.645
73737.2 62946.4 599.49
74443.5 63036.8 600.35
75032 63026.9 600.256
75561.5 62967.9 599.695
76277.7 63064.3 600.612
76966.2 63136.4 601.299
77757.8 63291.2 602.774
78541.5 63437.4 604.165
79450.1 63681.4 606.489
80119.2 63731.2 606.964
80998.3 63946 609.01
81750.4 64058.2 610.078
82607.1 64250 611.905
83219.7 64250.5 611.91
83996.6 64376.9 613.114
84981 64659.5 615.805
86534.8 65368.1 622.553
88250.6 66187.9 630.361
89418.5 66588.2 634.173
90224.8 66715.5 635.386
91098.8 66890.8 637.055
91918.1 67023.6 638.32
92679 67112.4 639.166
93291.1 67092.9 638.98
93734.4 66953.1 637.649
94410.6 66980.5 637.91
