493928 52136.8 2744.04
493650 51819.6 2727.35
493559 51525.3 2711.86
492425 51126.1 2690.84
492255 50830.7 2675.3
491904 50519.8 2658.94
492465 50305.5 2647.66
492140 50003.5 2631.76
492021 49725.5 2617.13
490736 49333.2 2596.49
491383 49138.3 2586.22
492133 48955.6 2576.61
491052 48593.7 2557.56
489572 48196.2 2536.64
488879 47879.9 2519.99
489237 47669.2 2508.91
489956 47495.8 2499.78
491335 47387.7 2494.09
491396 47154.2 2481.8
0 0 0
0 0 0
0 0 0
0 0 0
0 0 0
0 0 0
0 0 0
0 0 0
0 0 0
0 0 0
0 0 0
0 0 0
521605 46969.2 2472.06
525164 47066.6 2477.19
527701 47071.9 2477.47
530511 47101.4 2479.02
533305 47129.3 2480.49
534735 47036.9 2475.63
536883 47008.2 2474.12
537979 46888.1 2467.79
0 0 0
0 0 0
0 0 0
0 0 0
0 0 0
0 0 0
0 0 0
0 0 0
0 0 0
470297 39191.5 2062.71
471999 39161.5 2061.13
473304 39099 2057.84
475572 39116.3 2058.75
477776 39128.2 2059.38
0 0 0
0 0 0
0 0 0
0 0 0
0 0 0
0 0 0
0 0 0
0 0 0
480558 37886.3 1994.02
482260 37863.4 1992.81
483922 37837.5 1991.45
484871 37756.4 1987.18
486445 37724.3 1985.49
487936 37686.1 1983.48
489430 37648.5 1981.5
491377 37645.8 1981.36
493654 37668.4 1982.55
0 0 0
0 0 0
0 0 0
0 0 0
0 0 0
0 0 0
-0 0 0
-518782 40688.8 2034.44
-517724 40765.7 2038.28
-518942 41023.1 2051.16
-518084 41117.8 2055.89
-517248 41215 2060.75
-514273 41141.8 2057.09
-512512 41165.6 2058.28
-510816 41194.8 2059.74
-509354 41243.2 2062.16
-507072 41225.4 2061.27
-503448 41097.8 2054.89
-502010 41148.4 2057.42
-500671 41207.5 2060.37
-499342 41267.9 2063.4
-499162 41424.2 2071.21
-495740 41311.7 2065.58
-492618 41223.2 2061.16
-490349 41205.8 2060.29
-492539 41564.5 2078.22
-490128 41536.3 2076.81
-487974 41529.7 2076.48
-484832 41438.6 2071.93
-483901 41536.6 2076.83
-481361 41496.7 2074.83
-480077 41565.1 2078.25
-478731 41628.8 2081.44
-476535 41618.8 2080.94
-474172 41594.1 2079.7
-472586 41637.5 2081.88
-472126 41781.1 2089.05
-474870 42210.7 2110.53
-0 0 0
-0 0 0
-520915 46929.3 2346.46
-519155 46982.3 2349.12
-516707 46973.3 2348.67
-515096 47040.8 2352.04
-515556 47298.7 2364.94
-516967 47646.7 2382.34
-518288 47989.6 2399.48
-519715 48345.6 2417.28
-520513 48646.1 2432.3
-524318 49231.7 2461.59
-0 0 0
-623527 59102.1 2955.1
-627464 59758.5 2987.93
-628546 60148 3007.4
-630111 60587.6 3029.38
-630963 60962.7 3048.13
-625180 60697.1 3034.86
-649955 63410.3 3170.51
-0 0 0
-0 0 0
-0 0 0
-634440 63128.3 3156.42
-640906 64090.6 3204.53
-0 0 0
-0 0 0
-0 0 0
-631320 64420.4 3221.02
-0 0 0
-0 0 0
-642213 66550.6 3327.53
-0 0 0
-0 0 0
-0 0 0
-0 0 0
-0 0 0
-0 0 0
-0 0 0
-0 0 0
-0 0 0
-0 0 0
-0 0 0
-0 0 0
-0 0 0
-0 0 0
-0 0 0
-644594 72835.5 3641.78
-644228 73207.8 3660.39
-644417 73647.6 3682.38
-643487 73964 3698.2
-643835 74431.8 3721.59
-645640 75074.4 3753.72
-648783 75881.1 3794.05
-651270 76620.1 3831
-652705 77243.2 3862.16
-654556 77923.3 3896.17
-655820 78541.3 3927.06
-656327 79075.5 3953.77
-655176 79415.3 3970.76
-662266 80764.2 4038.21
-661888 81213.3 4060.66
-666223 82249.8 4112.49
-669246 83136.2 4156.81
-669588 83698.5 4184.92
-669031 84154.9 4207.74
-668552 84626.9 4231.34
-669421 85276.5 4263.83
-669024 85772.4 4288.62
-667645 86147.7 4307.38
-667174 86646 4332.3
-663771 86767.5 4338.37
-659635 86794.1 4339.71
-655121 86770.9 4338.55
-651586 86878.1 4343.9
-648483 87044.7 4352.23
-644515 87096.6 4354.83
-640465 87138 4356.9
-635484 87052.7 4352.63
-631273 87072.1 4353.6
-627354 87132.5 4356.63
-623946 87265.1 4363.26
-619407 87240.5 4362.02
-614766 87200.9 4360.04
-610590 87227.1 4361.36
-606803 87309.7 4365.49
-602443 87310.6 4365.53
-598214 87330.6 4366.53
-593866 87333.2 4366.66
-589134 87279.1 4363.95
-584850 87291.1 4364.55
-580705 87324 4366.2
-577045 87431.1 4371.55
-572653 87427.9 4371.4
-567981 87381.6 4369.08
-563165 87312.4 4365.62
-559080 87356.2 4367.81
-555281 87445.8 4372.29
-551474 87535.6 4376.78
-546485 87437.6 4371.88
-542637 87522.1 4376.11
-538449 87552.6 4377.63
-534525 87627.1 4381.35
-530044 87610.6 4380.53
-525461 87576.8 4378.84
-520774 87525 4376.25
-516575 87555 4377.75
-512172 87550.8 4377.54
-508274 87633.5 4381.68
-503737 87606.5 4380.32
-499574 87644.6 4382.23
-495299 87663.5 4383.17
-491302 87732.6 4386.63
-487383 87816.7 4390.83
-482607 87746.8 4387.34
-478553 87807.9 4390.39
-474333 87839.5 4391.98
-470575 87957.9 4397.9
-466436 88006.8 4400.34
-461550 87914.2 4395.71
-456619 87811.4 4390.57
-451470 87664.1 4383.21
-447552 87755.2 4387.76
-444203 87961 4398.05
-440319 88063.8 4403.19
-436120 88105.1 4405.25
-431387 88038.2 4401.91
-427276 88098.2 4404.91
-0 0 0
-0 0 0
-0 0 0
-0 0 0
-0 0 0
-0 0 0
-0 0 0
-0 0 0
-0 0 0
-0 0 0
-70164.5 16317.3 815.866
-71229.2 16759.8 837.99
-70625.8 16815.7 840.783
-69662 16786 839.301
-68599.5 16731.6 836.58
-67564.5 16682.6 834.129
-66528 16632 831.6
-65580.5 16602.6 830.132
-64525.1 16544.9 827.245
-63530.5 16501.4 825.071
-62395.4 16419.8 820.992
-61500.3 16400.1 820.004
-60538.8 16361.8 818.092
-59763.4 16373.5 818.677
-58872.5 16353.5 817.674
-58083.9 16361.6 818.082
-57299 16371.2 818.558
-56560 16394.2 819.709
-55737.2 16393.3 819.664
-54870.6 16379.3 818.964
-53937.3 16344.6 817.231
-53025.5 16315.5 815.777
-51869.4 16209.2 810.459
-50720.5 16101.7 805.087
-49552.7 15984.7 799.236
-48653.8 15952.1 797.603
-47541.7 15847.2 792.362
-45356.3 15375 768.752
-40321.3 13903.9 695.194
-37681.2 13221.5 661.073
-36355.5 12984.1 649.205
-35394.3 12870.6 643.532
-34601.5 12815.4 640.769
-33825.1 12764.2 638.209
-32947.4 12672.1 633.603
-31955.8 12531.7 626.584
-31032.7 12413.1 620.654
-30179.3 12318.1 615.904
-29372.9 12238.7 611.935
-28681.5 12204.9 610.246
-27962.2 12157.5 607.874
-27299.7 12133.2 606.659
-26665.6 12120.7 606.036
-26108.2 12143.3 607.167
-25620.2 12200.1 610.006
-25209.9 12297.5 614.877
-24889.5 12444.8 622.238
-24515.3 12572 628.598
-23978.7 12620.4 631.018
-23345.6 12619.3 630.963
-22738.3 12632.4 631.619
-22121.3 12640.8 632.038
-21509.6 12652.7 632.636
-20835.2 12627.4 631.37
-20224.9 12640.6 632.028
-19566.3 12623.4 631.17
-18926.5 12617.7 630.884
-18283.6 12609.4 630.471
-17694.6 12639 631.951
-17114.9 12677.7 633.884
-16546.5 12728 636.402
-15954.9 12763.9 638.197
-15369.7 12808.1 640.404
-14744.3 12821.1 641.056
-14169.8 12881.6 644.08
-13591.2 12944 647.202
-13045.3 13045.3 652.266
-12490.4 13147.8 657.391
-11934.9 13261 663.05
-11324.5 13322.9 666.147
-10685.5 13356.9 667.843
-9979.67 13306.2 665.312
-9322.08 13317.3 665.863
-8654.11 13314 665.701
-8059.9 13433.2 671.659
-7474.02 13589.1 679.457
-6957.5 13915 695.75
-6480.18 14400.4 720.021
-6038.46 15096.1 754.807
-5576.8 15933.7 796.685
-4990.57 16635.2 831.762
-4254.17 17016.7 850.834
-3437.63 17188.2 859.409
-2586.54 17243.6 862.18
-1723.56 17235.6 861.778
-862.058 17241.2 862.058
0 17250.4 862.522
863.819 17276.4 863.819
1727.81 17278.1 863.906
2589.1 17260.7 863.034
3451.56 17257.8 862.89
4319.65 17278.6 863.931
5185.36 17284.5 864.227
6049.77 17285.1 864.253
6908.51 17271.3 863.564
7776.83 17281.9 864.093
8634.05 17268.1 863.405
9486.41 17248 862.4
10339.1 17231.8 861.588
11193.3 17220.5 861.023
12037.4 17196.3 859.817
12876.2 17168.3 858.414
13728 17160 858.002
14605.6 17183 859.151
15473.1 17192.3 859.616
16255.8 17111.3 855.566
16865.7 16865.7 843.283
17544.8 16709.4 835.468
18376.8 16706.2 835.308
19233.5 16724.8 836.239
19476.7 16230.6 811.529
19533.6 15626.9 781.345
19843.6 15264.3 763.214
20380.5 15096.7 754.835
21168.7 15120.5 756.026
22197.4 15308.6 765.428
23455.8 15637.2 781.861
24723.9 15950.9 797.545
25788 16117.5 805.875
26721.7 16195 809.749
27613.6 16243.3 812.164
28577.2 16329.8 816.492
29616.3 16453.5 822.676
30612 16547 827.352
31529.7 16594.6 829.73
32349.4 16589.4 829.472
33209.3 16604.6 830.232
33959.3 16565.5 828.275
34712 16529.5 826.477
35321.7 16428.7 821.434
35834 16288.2 814.41
36265.2 16117.9 805.893
36673.2 15944.9 797.244
37224.2 15840.1 792.004
37877.5 15782.3 789.114
38575 15744.9 787.245
39290.9 15716.3 785.818
40035.7 15700.3 785.014
40913.1 15735.8 786.79
41870.9 15800.3 790.017
42877 15880.4 794.018
43799 15926.9 796.346
44665.7 15952 797.601
45457.7 15950.1 797.503
46298.8 15965.1 798.255
47135.8 15978.2 798.912
47977.5 15992.5 799.626
48761.4 15987.4 799.368
49572.5 15991.1 799.557
50221.5 15943.3 797.167
50661 15831.6 791.578
50779.1 15624.3 781.217
50969.8 15445.4 772.27
51155.3 15270.2 763.511
51447.3 15131.6 756.578
51894.9 15042 752.1
52459.5 14988.4 749.421
53079.4 14951.9 747.597
53720.1 14922.3 746.113
54606.9 14960.8 748.039
55572 15019.4 750.972
56919 15178.4 758.92
58335 15351.3 767.565
59588.8 15477.6 773.881
60663.7 15554.8 777.739
61609.6 15597.4 779.868
62385.2 15596.3 779.815
62605.5 15458.2 772.908
62708.8 15294.8 764.741
63095.7 15203.8 760.189
63748.6 15178.2 758.912
64440.1 15162.4 758.119
65087.6 15136.7 756.833
65787.5 15123.6 756.178
66484 15110 755.5
67189.6 15098.8 754.94
67897 15088.2 754.411
68751.6 15110.2 755.513
69611.7 15133 756.649
70047.2 15063.9 753.195
70090.1 14912.8 745.639
70083.2 14754.4 737.718
70195.1 14624 731.199
70500.5 14536.2 726.81
70995.8 14488.9 724.447
71894.4 14524.1 726.206
72609.8 14522 726.098
73213.4 14497.7 724.885
73634 14438 721.902
74374.6 14441.7 722.083
75067.4 14436 721.802
75794.4 14437 721.851
76459.3 14426.3 721.314
77092.1 14409.7 720.487
77861 14418.7 720.936
78589.7 14420.1 721.006
79128.1 14386.9 719.346
79821 14382.2 719.108
80500.5 14375.1 718.754
81410.6 14409 720.448
81952 14377.5 718.877
82649.1 14373.8 718.688
83418.4 14382.5 719.124
84096.3 14375.4 718.772
84629.3 14344 717.198
85252.3 14328.1 716.406
85874.8 14312.5 715.624
86536 14303.5 715.174
87158.3 14288.2 714.412
87886.5 14290.5 714.524
88614.7 14292.7 714.635
89317.1 14290.7 714.537
89962.2 14279.7 713.985
90670.8 14278.9 713.943
91671.6 14323.7 716.185
92845.6 14394.7 719.733
94766.6 14579.5 728.974
0 0 0
0 0 0
0 0 0
0 0 0
405732 60108.5 3005.43
409952 60287 3014.35
411926 60135.2 3006.76
413502 59927.8 2996.39
413269 59463.1 2973.16
408721 58388.7 2919.43
406317 57633.6 2881.68
409270 57643.7 2882.18
411369 57534.2 2876.71
412838 57338.7 2866.93
413995 57102.7 2855.14
416062 56994.8 2849.74
419294 57046.8 2852.34
421884 57011.4 2850.57
425110 57061.7 2853.08
428566 57142.2 2857.11
432449 57278 2863.9
435043 57242.5 2862.12
433912 56720.5 2836.02
428051 55591 2779.55
426807 55071.9 2753.59
428708 54962.6 2748.13
430880 54889.2 2744.46
433605 54886.7 2744.33
436348 54886.6 2744.33
438612 54826.5 2741.32
440677 54742.5 2737.12
443297 54728 2736.4
446001 54724.1 2736.21
449190 54779.2 2738.96
452475 54845.5 2742.27
456365 54983.8 2749.19
460191 55112.7 2755.63
464230 55265.4 2763.27
467722 55351.7 2767.59
470732 55380.2 2769.01
473716 55405.3 2770.27
478490 55638.4 2781.92
484806 56046.9 2802.35
490243 56349.7 2817.49
492459 56281.1 2814.05
493338 56061.1 2803.06
492044 55598.2 2779.91
492177 55300.8 2765.04
491800 54949.7 2747.49
492820 54757.7 2737.89
492936 54468.1 2723.41
492686 54141.4 2707.07
491519 53717.9 2685.9
491112 53381.8 2669.09
490414 53017.7 2650.89
491340 52832.3 2641.62
490916 52504.4 2625.22
491643 52302.4 2615.12
489785 51829.1 2591.46
489875 51565.8 2578.29
489145 51219.4 2560.97
488449 50880.1 2544.01
487967 50566.6 2528.33
489127 50425.5 2521.28
489251 50179.6 2508.98
489808 49980.4 2499.02
490741 49821.4 2491.07
490580 49553.5 2477.68
0 0 0
0 0 0
0 0 0
0 0 0
0 0 0
0 0 0
0 0 0
0 0 0
0 0 0
0 0 0
0 0 0
0 0 0
519811 49271.1 2463.56
522475 49290.1 2464.51
524820 49278.9 2463.94
527647 49312.8 2465.64
531005 49395.8 2469.79
532672 49321.5 2466.07
534840 49294.1 2464.7
536409 49211.9 2460.59
0 0 0
0 0 0
0 0 0
0 0 0
0 0 0
0 0 0
0 0 0
0 0 0
0 0 0
470447 41267.2 2063.36
472128 41233.9 2061.69
472137 41055.4 2052.77
473875 41028.1 2051.41
476461 41074.3 2053.71
0 0 0
0 0 0
0 0 0
0 0 0
0 0 0
0 0 0
0 0 0
0 0 0
0 0 0
0 0 0
482887 39743.8 1987.19
0 0 0
485916 39666.6 1983.33
0 0 0
0 0 0
490002 39516.3 1975.81
0 0 0
0 0 0
0 0 0
0 0 0
0 0 0
0 0 0
0 0 0
-0 0 0
-516638 42546.6 2026.03
-516677 42717.4 2034.16
-515707 42805.7 2038.37
-517222 43101.8 2052.47
-518484 43379.1 2065.67
-515471 43299.5 2061.88
-511891 43171.5 2055.79
-509316 43127.6 2053.7
-508464 43229.7 2058.56
-505071 43115.8 2053.13
-503381 43147 2054.62
-501762 43184.5 2056.4
-500498 43252.9 2059.66
-497126 43139 2054.24
-497198 43324.3 2063.06
-494946 43307.7 2062.27
-492670 43289 2061.38
-489221 43166.5 2055.55
-491468 43547.8 2073.7
-489583 43564.6 2074.5
-487840 43594.2 2075.92
-484612 43490.9 2070.99
-483224 43552.4 2073.92
-480573 43500.1 2071.43
-479271 43570.1 2074.76
-477685 43614.7 2076.89
-475759 43628.5 2077.55
-473974 43655.5 2078.83
-473114 43768.3 2084.2
-473109 43961.4 2093.4
-475271 44358.6 2112.32
-0 0 0
-0 0 0
-517354 48938.9 2330.43
-515501 48984.2 2332.58
-511422 48817.6 2324.65
-513055 49197.1 2342.72
-513241 49440.6 2354.32
-518505 50177.9 2389.43
-518944 50452.9 2402.52
-519601 50751.8 2416.75
-523147 51336.8 2444.61
-529764 52230.2 2487.15
-0 0 0
-626336 62336.7 2968.41
-628640 62864 2993.52
-630383 63339.9 3016.18
-629434 63548.6 3026.12
-628376 63748.3 3035.63
-627977 64017.1 3048.43
-624725 63996.2 3047.44
-637825 65658.5 3126.59
-0 0 0
-0 0 0
-0 0 0
-0 0 0
-0 0 0
-0 0 0
-0 0 0
-0 0 0
-0 0 0
-0 0 0
-0 0 0
-0 0 0
-0 0 0
-0 0 0
-0 0 0
-0 0 0
-0 0 0
-0 0 0
-0 0 0
-0 0 0
-0 0 0
-0 0 0
-0 0 0
-0 0 0
-0 0 0
-0 0 0
-643706 76372 3636.76
-641720 76568.9 3646.14
-642540 77104.8 3671.66
-644293 77759.5 3702.83
-644290 78208.6 3724.22
-644585 78699.4 3747.59
-646419 79384.8 3780.23
-649450 80226.2 3820.29
-647496 80458.1 3831.34
-652889 81611.2 3886.25
-656762 82586.9 3932.71
-657111 83128.5 3958.5
-0 0 0
-657578 84202.1 4009.62
-660751 85127.4 4053.69
-665841 86312.7 4110.13
-669207 87287.9 4156.57
-670133 87954.9 4188.33
-669586 88435.9 4211.23
-668506 88852.1 4231.05
-668780 89454.7 4259.75
-668254 89957.3 4283.68
-667706 90463.3 4307.78
-667126 90971.7 4331.98
-664483 91203.5 4343.02
-660274 91222.1 4343.91
-656193 91258.7 4345.65
-652145 91300.3 4347.63
-648354 91378.8 4351.37
-644310 91422.4 4353.45
-640349 91478.4 4356.11
-635932 91469.6 4355.7
-631610 91474.5 4355.93
-627537 91515.8 4357.89
-623288 91531.8 4358.66
-618608 91484.3 4356.4
-614149 91469.1 4355.67
-610653 91598 4361.81
-606494 91628.6 4363.27
-602212 91641 4363.86
-597768 91628.7 4363.27
-593766 91684.5 4365.93
-589044 91629 4363.29
-584893 91662.3 4364.87
-580533 91663.1 4364.91
-576578 91728.3 4368.01
-572340 91749.2 4369.01
-567998 91753.6 4369.22
-563469 91727.5 4367.97
-559201 91743.8 4368.75
-555064 91782.2 4370.58
-551111 91851.8 4373.9
-546370 91790.2 4370.96
-542280 91837.7 4373.22
-538068 91865.3 4374.54
-534090 91933.5 4377.79
-529689 91929.5 4377.6
-525308 91928.8 4377.56
-520976 91936.9 4377.95
-516750 91964.1 4379.24
-512227 91938.2 4378.01
-508095 91982.7 4380.13
-503787 91995.9 4380.76
-499650 92040.8 4382.9
-495112 92011.9 4381.52
-490905 92044.6 4383.08
-486946 92125 4386.9
-482428 92099.8 4385.7
-477967 92085.4 4385.02
-473766 92121.2 4386.72
-470138 92270.1 4393.81
-465863 92293.7 4394.94
-461415 92283 4394.43
-456095 92096.2 4385.53
-451374 92027.7 4382.27
-447093 92048.6 4383.27
-444148 92347.5 4397.5
-440678 92542.4 4406.78
-436834 92661.7 4412.46
-430812 92317 4396.05
-426996 92442.5 4402.02
-0 0 0
-0 0 0
-0 0 0
-0 0 0
-0 0 0
-0 0 0
-0 0 0
-0 0 0
-0 0 0
-0 0 0
-69283.1 16918 805.618
-71570 17682 841.999
-70921.1 17730.3 844.299
-69869.6 17677.9 841.803
-68815.6 17623.5 839.215
-67703.3 17552.7 835.843
-66484.8 17452.3 831.06
-65384.5 17380.7 827.652
-64247.9 17297.5 823.691
-63329.7 17271.7 822.463
-62304.5 17215.7 819.796
-61460.9 17209 819.478
-60463.2 17158.5 817.07
-59664.4 17163.7 817.32
-58770.8 17141.5 816.262
-57983.6 17150.1 816.671
-57300 17190 818.571
-56536.7 17206.8 819.372
-55747.9 17216.3 819.823
-54853.9 17193 818.715
-54035.1 17193 818.714
-53227.4 17196.6 818.883
-52112.7 17099.5 814.261
-50852.8 16950.9 807.187
-49543.2 16780.8 799.084
-48264.5 16615.6 791.221
-0 0 0
-40493.3 14412.9 686.327
-38293.5 13864.9 660.233
-36993.4 13629.1 649.007
-36058.2 13521.8 643.896
-35291.9 13475.1 641.671
-34600.4 13455.7 640.747
-33851.6 13412.9 638.709
-32999.7 13326.8 634.61
-32049 13196.7 628.412
-31130.3 13074.7 622.605
-30246.2 12962.7 617.27
-29430.4 12875.8 613.132
-28728.8 12836.3 611.252
-28045.6 12803.4 609.687
-27385.4 12779.8 608.564
-26713.3 12749.5 607.121
-26126.1 12759.3 607.585
-25602.7 12801.4 609.589
-25172.6 12893.3 613.967
-24833.5 13037.6 620.838
-24513.4 13199.5 628.55
-24049.2 13290.3 632.873
-23451.9 13310.5 633.835
-22814.4 13308.4 633.734
-22208.9 13325.3 634.54
-21578.4 13327.8 634.659
-20934.9 13322.2 634.39
-20281.7 13309.9 633.805
-19613.1 13286.3 632.681
-18981.3 13286.9 632.709
-18360.8 13295.7 633.13
-17779.8 13334.9 634.993
-17187.4 13367.9 636.569
-16605.8 13412.4 638.685
-16013.1 13451 640.525
-15428.9 13500.3 642.872
-14821.7 13532.8 644.42
-14252.2 13604.4 647.827
-13667.4 13667.4 650.828
-13127.6 13783.9 656.378
-12584.7 13909.4 662.352
-12036.8 14042.9 668.711
-11396.4 14077.9 670.377
-10723.2 14074.2 670.202
-10021.8 14030.6 668.123
-9360.14 14040.2 668.582
-8735.49 14111.2 671.961
-8168.8 14295.4 680.733
-7676.87 14655.8 697.897
-7277.55 15282.9 727.755
-6936.21 16184.5 770.69
-6435.68 16893.6 804.459
-5802.1 17406.3 828.871
-5076.46 17767.6 846.076
-4282.36 17985.9 856.472
-3446.6 18094.6 861.65
-2592.34 18146.4 864.114
-1726.57 18129 863.284
-862.865 18120.2 862.865
0 18116.1 862.672
864.019 18144.4 864.019
1729.22 18156.8 864.608
2594.18 18159.3 864.728
3458.48 18157 864.62
4327.28 18174.6 865.456
5186.42 18152.5 864.404
6050.31 18150.9 864.329
6904.42 18124.1 863.052
7774.97 18141.6 863.885
8634.55 18132.5 863.455
9491.1 18119.4 862.827
10339.6 18094.4 861.637
11189 18074.5 860.691
12030.6 18045.8 859.326
12872.8 18022 858.189
13730.8 18021.7 858.175
14609.1 18046.6 859.36
15489.2 18070.7 860.511
16183.1 17886.6 851.744
16753.3 17591 837.666
17430.8 17430.8 830.039
18324.4 17491.4 832.925
19292.3 17614.7 838.796
19642.2 17186.9 818.424
19631.2 16490.2 785.249
19927.8 16095.5 766.452
20437.3 15895.7 756.939
21192.5 15894.4 756.875
22195.2 16072.4 765.35
23441.9 16409.3 781.397
24723.9 16748.4 797.544
25787 16922.7 805.843
26761 17029.7 810.938
27704.4 17111.5 814.835
28715.6 17229.4 820.447
29711.1 17331.5 825.31
30627.8 17383.3 827.778
31483.4 17398.7 828.511
32308.9 17397.1 828.432
33173.5 17416.1 829.338
33932.8 17380.2 827.629
34686.6 17343.3 825.871
35216.9 17199 818.998
35708.8 17042.8 811.563
36102.8 16848 802.284
36582.8 16700.9 795.279
37144.2 16596.4 790.303
37807.6 16540.8 787.658
38524.4 16510.5 786.212
39268.1 16492.6 785.362
40053.5 16492.6 785.363
40931.2 16529.9 787.138
41846.5 16580.7 789.557
42851.2 16664.4 793.541
43832.2 16735.9 796.949
44718.5 16769.5 798.545
45516.2 16769.1 798.53
46351.4 16782.4 799.162
47200.9 16800.3 800.016
47967.7 16788.7 799.461
48666.4 16754 797.81
49424.5 16740.6 797.169
50139.6 16713.2 795.867
50660.3 16622.9 791.567
50833.1 16423 782.047
50972.5 16218.5 772.311
51085.4 16011.9 762.469
51369.6 15864.1 755.436
51890.4 15792.7 752.034
52478.2 15743.5 749.688
53163.1 15724.3 748.776
53803.1 15692.6 747.266
54713 15739.4 749.494
55693.7 15805 752.617
57111.8 15991.3 761.49
58530.3 16172.8 770.135
59774.1 16302 776.288
60786 16365.5 779.308
61733.2 16410.1 781.433
62307.4 16355.7 778.842
62434.4 16186.7 770.795
62660.3 16047.1 764.15
63202.1 15990.9 761.471
63918.1 15979.5 760.93
64577.3 15954.4 759.733
65152.4 15909.3 757.586
65786.3 15879.5 756.165
66550.4 15881.3 756.254
67351.9 15892 756.763
68179.4 15908.5 757.549
68986.9 15920.1 758.098
69705.9 15911.1 757.673
69778.5 15756.4 750.307
69573.4 15543 740.142
69622 15390.1 732.863
69969.1 15305.7 728.845
70381.1 15237.2 725.579
71011.9 15216.8 724.611
71936.1 15259.2 726.627
72649.4 15256.4 726.494
73288.5 15238.2 725.629
73722.4 15178.1 722.768
74504.4 15190.2 723.344
75111.8 15166.8 722.229
75836.2 15167.2 722.25
76502.7 15156.2 721.723
77262 15163.6 722.074
77952.9 15157.5 721.786
78747.4 15171.5 722.453
79214.1 15122.7 720.129
79914.8 15119 719.953
80524.2 15098.3 718.966
81358.6 15119.7 719.987
81898.2 15086.5 718.405
82348.4 15037.5 716.073
82959.7 15018.6 715.169
83512.5 14989.4 713.782
84103.1 14967.5 712.738
84597.4 14928.9 710.902
85218.4 14913.2 710.153
85919.7 14911.7 710.08
86674.3 14919.3 710.445
87427.4 14926.6 710.792
88227.4 14941.7 711.511
88918 14938.2 711.344
89673 14945.5 711.691
90390.1 14946.4 711.733
91336.3 14984.9 713.565
92252 15017.8 715.132
93429.1 15092.4 718.685
95100.4 15245.1 725.957
97272.6 15475.2 736.914
97787.9 15440.2 735.247
0 0 0
0 0 0
408986 63152.2 3007.25
411743 63113.9 3005.42
413841 62975.9 2998.85
413744 62508.1 2976.58
407208 61081.1 2908.63
405069 60329.5 2872.83
408222 60370.8 2874.8
410927 60345.9 2873.62
412709 60186.7 2866.03
414073 59969.2 2855.67
416174 59860.6 2850.51
419118 59873.9 2851.14
421504 59808 2848
424546 59835.4 2849.3
428228 59951.9 2854.85
432578 60159.8 2864.75
435509 60169.1 2865.19
434736 59669.7 2841.41
428539 58437.1 2782.72
426874 57834.6 2754.03
428434 57673.8 2746.37
430597 57595.8 2742.65
433559 57624.9 2744.04
436085 57596.1 2742.67
438825 57595.8 2742.66
440543 57462.1 2736.29
443047 57432 2734.86
445783 57432.2 2734.87
448950 57487.5 2737.5
451938 57519.3 2739.02
455103 57573.2 2741.58
458882 57703.7 2747.79
463215 57901.9 2757.23
467462 58087 2766.05
470936 58174.4 2770.21
474132 58226.8 2772.7
478548 58427.4 2782.26
483949 58745.3 2797.39
489932 59129.8 2815.7
492662 59119.5 2815.21
493429 58875 2803.57
492430 58423.8 2782.09
492288 58078.9 2765.66
492055 57727.1 2748.91
492710 57482.8 2737.28
493107 57211.3 2724.35
492682 56847.9 2707.04
491693 56423.7 2686.84
490797 56014.9 2667.37
491112 55747.9 2654.66
491510 55493.1 2642.53
491614 55208 2628.95
491345 54884.3 2613.54
490440 54493.4 2594.92
489991 54156.9 2578.9
488737 53735.5 2558.83
487280 53296.3 2537.92
487484 53042.3 2525.82
487946 52818.9 2515.19
488601 52618.6 2505.65
489358 52431.3 2496.73
490400 52276.1 2489.34
490065 51976.6 2475.08
0 0 0
0 0 0
0 0 0
0 0 0
0 0 0
0 0 0
0 0 0
0 0 0
0 0 0
0 0 0
0 0 0
0 0 0
518046 51559.1 2455.19
520970 51605.5 2457.4
523022 51565.6 2455.5
525902 51607.2 2457.49
528726 51643 2459.19
530583 51584.5 2456.4
532926 51573.4 2455.88
534511 51489.6 2451.88
0 0 0
0 0 0
0 0 0
0 0 0
0 0 0
0 0 0
0 0 0
0 0 0
0 0 0
470369 43323.4 2063.02
471484 43236.5 2058.88
471944 43090.5 2051.93
473182 43016.5 2048.41
0 0 0
0 0 0
0 0 0
0 0 0
0 0 0
0 0 0
0 0 0
0 0 0
0 0 0
0 0 0
0 0 0
0 0 0
0 0 0
0 0 0
0 0 0
0 0 0
0 0 0
0 0 0
0 0 0
0 0 0
0 0 0
0 0 0
0 0 0
0 0 0
-0 0 0
-519495 44819.2 2037.24
-517562 44828.2 2037.65
-516165 44883.9 2040.18
-517702 45196.2 2054.37
-515570 45189.4 2054.06
-515064 45325.6 2060.25
-511607 45202.2 2054.65
-508580 45116 2050.73
-505754 45046.9 2047.59
-504434 45112 2050.55
-503050 45171.8 2053.26
-502806 45335 2060.68
-501056 45363.1 2061.96
-497554 45232.2 2056.01
-496877 45358 2061.73
-494972 45372.4 2062.38
-493352 45413.2 2064.24
-491062 45392.3 2063.28
-489058 45397.8 2063.53
-489162 45599.9 2072.72
-487739 45660.7 2075.49
-484314 45533.8 2069.72
-482679 45574.9 2071.58
-480384 45553.7 2070.62
-478511 45572.5 2071.48
-475635 45495.5 2067.98
-474858 45619.5 2073.61
-473320 45671.2 2075.96
-473263 45866.9 2084.86
-471732 45920.8 2087.31
-473044 46253.2 2102.42
-0 0 0
-0 0 0
-515069 51042.9 2320.13
-516813 51447.4 2338.52
-515972 51597.2 2345.33
-515719 51807.4 2354.88
-521519 52630.4 2392.29
-519597 52678.1 2394.46
-518971 52858.1 2402.64
-520701 53281.1 2421.87
-524007 53869.9 2448.63
-0 0 0
-0 0 0
-626230 65294.2 2967.92
-629288 65925.4 2996.61
-629283 66240.3 3010.92
-628064 66429.8 3019.54
-628102 66754.8 3034.31
-630698 67356.1 3061.64
-632320 67858.8 3084.49
-633762 68346.8 3106.67
-638322 69177.8 3144.44
-637303 69409.3 3154.97
-633973 69390.1 3154.09
-637950 70174.5 3189.75
-0 0 0
-0 0 0
-0 0 0
-0 0 0
-0 0 0
-0 0 0
-0 0 0
-0 0 0
-0 0 0
-0 0 0
-0 0 0
-0 0 0
-0 0 0
-0 0 0
-0 0 0
-0 0 0
-0 0 0
-0 0 0
-0 0 0
-0 0 0
-0 0 0
-643166 79492.4 3613.29
-641435 79726.3 3623.92
-641618 80202.3 3645.56
-644135 80976.9 3680.77
-646313 81717.7 3714.44
-647039 82282.4 3740.11
-646878 82740.2 3760.92
-648643 83451.1 3793.23
-649675 84075.6 3821.62
-650545 84686.3 3849.38
-650368 85167.2 3871.24
-656383 86469.7 3930.44
-660297 87509.3 3977.7
-660280 88037.3 4001.69
-659157 88423.6 4019.25
-664996 89754.1 4079.73
-665114 90324.1 4105.64
-668506 91348.7 4152.21
-669744 92089.8 4185.9
-668634 92515.3 4205.24
-668424 93071.7 4230.53
-668172 93629.2 4255.87
-667438 94125.8 4278.45
-666998 94670.7 4303.21
-665982 95140.2 4324.56
-663329 95380.7 4335.49
-659793 95496.3 4340.74
-655920 95564.5 4343.84
-651952 95619.7 4346.35
-647570 95614.4 4346.11
-643369 95636 4347.09
-639938 95773 4353.32
-635999 95835.5 4356.16
-631918 95877.2 4358.05
-627409 95854.2 4357.01
-622750 95807.7 4354.9
-618280 95789.9 4354.08
-614125 95820.9 4355.5
-610506 95936.7 4360.76
-606147 95936.9 4360.77
-601854 95947.7 4361.26
-597647 95972.5 4362.39
-593698 96039.4 4365.43
-588949 95976.9 4362.59
-584645 95986.6 4363.03
-580034 95945.4 4361.16
-576254 96042.4 4365.56
-571595 95993.1 4363.32
-567118 95973.8 4362.44
-562889 95996.6 4363.48
-558752 96035.5 4365.25
-554225 96007.5 4363.98
-550054 96041.2 4365.51
-545729 96048.2 4365.83
-541853 96135.2 4369.78
-537417 96123.3 4369.24
-533707 96242.2 4374.64
-529716 96312 4377.82
-525388 96321.1 4378.23
-521143 96345.7 4379.35
-516795 96351.7 4379.62
-512049 96282.8 4376.49
-508005 96345.9 4379.36
-503493 96320.3 4378.2
-499485 96391.8 4381.45
-494457 96265.9 4375.72
-490110 96271.6 4375.98
-485966 96317.5 4378.07
-481183 96236.6 4374.39
-476657 96206.1 4373
-472488 96247.5 4374.89
-468848 96398.7 4381.76
-464961 96501.4 4386.43
-459885 96356.8 4379.86
-455222 96297 4377.14
-450765 96279.8 4376.35
-446386 96279.4 4376.34
-443541 96613 4391.5
-440251 96855.1 4402.51
-436158 96924 4405.64
-430964 96747 4397.59
-427680 96999.5 4409.07
-0 0 0
-0 0 0
-0 0 0
-0 0 0
-0 0 0
-0 0 0
-0 0 0
-0 0 0
-67157.7 16789.4 763.155
-0 0 0
-70975.5 18156.5 825.296
-71481 18501 840.953
-70781.3 18538 842.634
-69723.2 18480.9 840.039
-68607.1 18406.8 836.671
-67449.8 18319.7 832.714
-66215 18209.1 827.688
-65175.2 18150.1 825.003
-64068.3 18070.5 821.388
-63230.8 18065.9 821.179
-62217.9 18010.5 818.657
-61348 17995.4 817.973
-60298.9 17926.7 814.85
-59438.7 17913 814.229
-58567.7 17895.7 813.441
-57772.7 17901.4 813.7
-57054.7 17931.5 815.068
-56279.3 17944.1 815.642
-55539.6 17968.7 816.76
-54725.2 17969.5 816.794
-53970.3 17990.1 817.732
-53146.7 17988.1 817.641
-52045 17890.5 813.203
-50716.9 17710.7 805.03
-48894.5 17349.7 788.621
-45917.3 16560.4 752.743
-40827.3 14970 680.455
-38612.7 14397.9 654.452
-37329.2 14159.3 643.607
-36348.8 14029.4 637.699
-35515.1 13952.4 634.198
-34914.5 13965.8 634.809
-34328.8 13985.8 635.719
-33682.9 13981.6 635.527
-32855.7 13900.5 631.841
-31972.3 13792 626.908
-31023.7 13650.4 620.475
-30180.6 13550.5 615.931
-29296.9 13427.7 610.352
-28579.6 13377.7 608.078
-27887.2 13337.4 606.244
-27258.8 13326.5 605.751
-26595.9 13298 604.453
-25980.1 13292.1 604.188
-25406.8 13308.3 604.925
-24919.9 13371.7 607.802
-24538.3 13496.1 613.457
-24288.8 13701.3 622.789
-23941.4 13860.8 630.036
-23434.9 13934.3 633.377
-22772.9 13916.8 632.582
-22162.4 13930.7 633.212
-21528 13929.9 633.176
-20909.4 13939.6 633.619
-20209.8 13894.2 631.556
-19547.1 13872.2 630.552
-18939.3 13888.9 631.312
-18346.2 13917.8 632.629
-17751.2 13947.3 633.97
-17148.2 13972.6 635.118
-16577.9 14027.4 637.611
-15990.6 14071.7 639.624
-15404.8 14121.1 641.868
-14813.7 14169.6 644.073
-14263.3 14263.3 648.331
-13695.8 14348 652.182
-13147.7 14462.5 657.384
-12615.4 14607.3 663.97
-12066.3 14747.7 670.351
-11396 14747.8 670.354
-10691.5 14700.9 668.221
-10008 14678.3 667.197
-9376.8 14735 669.772
-8787.33 14870.9 675.949
-8314.87 15243.9 692.906
-8007.3 16014.6 727.936
-7813.4 17189.5 781.34
-7328.44 17914 814.271
-6639.06 18257.4 829.882
-5861.16 18420.8 837.309
-5075.3 18609.4 845.883
-4261.96 18752.6 852.391
-3437.91 18908.5 859.479
-2583.38 18944.8 861.127
-1722.64 18949.1 861.322
-860.488 18930.7 860.488
0 18927.5 860.341
859.77 18914.9 859.77
1720.06 18920.6 860.028
2585.39 18959.5 861.796
3451.4 18982.7 862.85
4314.51 18983.8 862.902
5169.24 18953.9 861.541
6026.67 18941 860.952
6883.94 18930.8 860.493
7746.81 18936.6 860.756
8605.28 18931.6 860.528
9454.75 18909.5 859.523
10300.9 18884.9 858.406
11145.3 18861.2 857.327
11999.5 18856.3 857.106
12844.3 18838.3 856.285
13707.9 18848.4 856.745
14574.8 18861.6 857.344
15381.4 18799.5 854.521
15981.1 18504.4 841.111
16603.5 18263.9 830.175
17364.9 18191.8 826.901
18325.4 18325.4 832.974
19303.1 18463.8 839.266
19602.1 17968.6 816.753
19525.7 17182.6 781.027
19820.3 16771 762.32
20364.6 16593.4 754.245
21136.4 16607.2 754.871
22141.8 16797.2 763.509
23384 17148.3 779.466
24674.2 17510.7 795.941
25747.2 17701.2 804.601
26718.1 17812.1 809.64
27698.4 17922.5 814.659
28723.6 18054.9 820.675
29676.5 18135.6 824.347
30537.4 18157.4 825.335
31355.4 18153.1 825.141
32173 18148.9 824.95
33031.1 18167.1 825.777
33812.1 18143.1 824.685
34534.1 18089.3 822.24
34997.8 17905.9 813.903
35419.8 17709.9 804.996
35813.7 17508.9 795.859
36315.3 17368.2 789.462
36911.7 17277.8 785.356
37587 17227.4 783.062
38321.9 17205.8 782.08
39118.6 17212.2 782.372
39928.5 17224 782.911
40771.3 17249.4 784.063
41621.6 17276.9 785.314
42583.3 17348.7 788.579
43586.1 17434.4 792.474
44493.5 17479.6 794.526
45325 17493.8 795.175
46169.2 17512.5 796.021
47012.2 17530 796.817
47770.3 17515.8 796.171
48454.4 17475.3 794.334
49182.5 17451.8 793.266
49946.4 17441.6 792.8
50463.8 17346.9 788.496
50621.9 17133.6 778.799
50697.5 16899.2 768.143
50882.7 16707.8 759.444
51202.3 16565.5 752.975
51722.6 16491.3 749.603
52317.4 16442.6 747.391
52973.2 16414.2 746.101
53666.5 16398.1 745.368
54491 16422 746.452
55514.7 16504.4 750.198
56850.3 16676.1 758.004
58345.4 16889.5 767.703
59635.8 17038.8 774.49
60662 17109.8 777.718
61490.5 17123.9 778.36
61874.1 17015.4 773.427
62099.6 16866.6 766.662
62437.6 16751.5 761.434
62983.7 16694.5 758.839
63613.5 16660.7 757.303
64217.3 16621 755.498
64812.7 16580 753.636
65447.1 16549.8 752.265
66236.2 16559.1 752.684
67183.2 16607.1 754.868
68038.9 16631.7 755.988
68715.5 16612.5 755.115
69073.6 16517.6 750.801
68991.3 16320.5 741.842
68875 16119.7 732.713
69050.5 15990.6 726.847
69552.2 15939 724.502
70011.3 15878.9 721.766
70666.4 15863.9 721.086
71391.1 15864.7 721.123
72180.3 15879.7 721.803
72808.8 15859.3 720.879
73359.7 15822.7 719.213
74141.5 15836 719.82
74777.1 15818.2 719.01
75632.6 15846.8 720.311
76242.7 15824 719.271
77117.3 15855.9 720.722
77655 15818.6 719.028
78337.4 15811.2 718.692
78762.4 15752.5 716.022
79268.8 15710.9 714.133
79763.2 15667.8 712.171
80277.9 15629.3 710.423
80811.5 15595.2 708.873
81208 15535.4 706.156
81758 15505.8 704.81
82406.3 15495.2 704.327
83162.5 15504.9 704.767
83759 15484.9 703.858
84489.8 15489.8 704.081
85194.8 15490 704.09
86007.1 15509.5 704.977
86706.1 15508.4 704.928
87463.9 15517.8 705.354
88199.3 15523.1 705.594
89106.4 15558.3 707.193
90078.8 15604.2 709.282
91045 15648.4 711.289
91904.3 15673.6 712.437
92821.7 15708.3 714.013
93952 15778.2 717.191
95203.6 15867.3 721.24
97046.5 16052.8 729.673
0 0 0
0 0 0
406771 65801.2 2990.96
410930 65988.8 2999.49
413224 65876.2 2994.37
413057 65375.9 2971.63
404640 63586.2 2890.28
403353 62934.6 2860.66
407026 63060.4 2866.38
410303 63123.5 2869.25
411658 62892.1 2858.73
413227 62696.5 2849.84
415057 62542.9 2842.86
418165 62582.6 2844.66
420395 62491.1 2840.51
423487 62528.2 2842.19
427360 62679.5 2849.07
431746 62903.5 2859.25
434589 62901 2859.14
434226 62437.7 2838.08
429050 61292.8 2786.04
426245 60499.3 2749.97
427748 60323.4 2741.97
429450 60177.7 2735.35
432139 60171.3 2735.06
434205 60078.7 2730.85
437544 60162.3 2734.65
439669 60079 2730.86
442414 60080.9 2730.95
445143 60080.6 2730.94
448041 60103.1 2731.96
451458 60194.5 2736.11
454367 60217.3 2737.15
457741 60301.2 2740.96
461638 60452.7 2747.85
465539 60602.7 2754.67
469869 60806.6 2763.94
472689 60813.8 2764.27
477181 61034.8 2774.31
482149 61313.8 2786.99
488568 61773 2807.86
491680 61811.2 2809.6
492767 61595.9 2799.81
491990 61151.3 2779.61
491619 60761.9 2761.9
491390 60394.3 2745.19
491482 60070 2730.46
492306 59838.3 2719.92
492062 59480 2703.64
491424 59078.3 2685.38
490250 58616.8 2664.4
490378 58315.2 2650.69
491210 58100.1 2640.91
490712 57730.8 2624.13
489790 57315.9 2605.27
488984 56918.7 2587.21
489070 56629.2 2574.05
488540 56271.6 2557.8
487185 55823.3 2537.42
485693 55364 2516.54
485632 55071.7 2503.26
486667 54906 2495.73
487540 54723.9 2487.45
488809 54587.8 2481.26
488744 54304.9 2468.4
0 0 0
0 0 0
0 0 0
0 0 0
0 0 0
0 0 0
0 0 0
0 0 0
0 0 0
0 0 0
0 0 0
0 0 0
516043 53805.5 2445.7
519406 53900.6 2450.03
521486 53862.4 2448.29
524303 53900.3 2450.02
526706 53895.5 2449.8
0 0 0
0 0 0
0 0 0
0 0 0
0 0 0
0 0 0
0 0 0
0 0 0
0 0 0
0 0 0
0 0 0
0 0 0
0 0 0
470532 45203.9 2054.72
471256 45076.6 2048.94
0 0 0
0 0 0
0 0 0
0 0 0
0 0 0
0 0 0
0 0 0
0 0 0
0 0 0
0 0 0
0 0 0
0 0 0
0 0 0
0 0 0
0 0 0
0 0 0
0 0 0
0 0 0
0 0 0
0 0 0
0 0 0
0 0 0
0 0 0
0 0 0
0 0 0
-0 0 0
-522384 47116.9 2048.56
-520366 47119.7 2048.68
-517397 47036.1 2045.05
-513625 46878.4 2038.19
-514071 47106.1 2048.09
-513796 47269.3 2055.19
-511840 47278.3 2055.58
-509524 47254.2 2054.53
-506457 47160 2050.43
-505365 47249.5 2054.33
-504665 47376.7 2059.86
-503242 47436.7 2062.47
-501302 47448.3 2062.97
-499002 47425.8 2061.99
-496977 47429.3 2062.14
-494567 47396 2060.7
-492727 47417.2 2061.62
-490292 47381.1 2060.05
-488761 47432.5 2062.28
-488097 47568.8 2068.21
-486387 47603.9 2069.73
-484685 47640 2071.3
-483689 47746.2 2075.92
-481565 47741.3 2075.71
-480048 47797 2078.13
-475196 47519.6 2066.07
-474382 47645.3 2071.54
-472990 47713.9 2074.52
-472845 47909.4 2083.02
-471512 47985.7 2086.34
-472584 48308.6 2100.37
-0 0 0
-0 0 0
-0 0 0
-0 0 0
-0 0 0
-0 0 0
-0 0 0
-0 0 0
-538140 57301.9 2491.39
-0 0 0
-0 0 0
-0 0 0
-0 0 0
-629585 68627.7 2983.81
-630227 69024.8 3001.08
-629210 69243.3 3010.58
-629625 69622 3027.04
-630043 70004.8 3043.69
-632909 70664.6 3072.38
-632013 70908.8 3082.99
-634865 71577.9 3112.08
-636605 72127.7 3135.99
-632510 72018.5 3131.24
-631722 72286.6 3142.89
-635318 73061.6 3176.59
-636902 73611.8 3200.51
-634948 73756.6 3206.81
-0 0 0
-0 0 0
-0 0 0
-0 0 0
-0 0 0
-0 0 0
-0 0 0
-0 0 0
-0 0 0
-0 0 0
-0 0 0
-0 0 0
-0 0 0
-0 0 0
-0 0 0
-0 0 0
-0 0 0
-0 0 0
-0 0 0
-641102 82839 3601.7
-641416 83347.8 3623.82
-643003 84028.8 3653.42
-645662 84858.4 3689.5
-645614 85339.8 3710.42
-648116 86165.7 3746.33
-646717 86479.6 3759.98
-650942 87553.6 3806.68
-650468 88004.5 3826.28
-650555 88537.1 3849.44
-650939 89116.7 3874.64
-654054 90079.3 3916.49
-660064 91454.7 3976.29
-660949 92132.2 4005.75
-657453 92203.8 4008.86
-665555 93912.7 4083.16
-664986 94411.7 4104.85
-669927 95703.8 4161.04
-668835 96145 4180.22
-668173 96653.9 4202.34
-667640 97188.1 4225.57
-668888 97990 4260.44
-667991 98485.9 4281.99
-666907 98960.4 4302.63
-665735 99428 4322.96
-662302 99561.7 4328.77
-659111 99733.9 4336.26
-655791 99888.7 4342.99
-652377 100031 4349.18
-648166 100052 4350.11
-643885 100063 4350.57
-639990 100135 4353.68
-636040 100198 4356.44
-631655 100194 4356.24
-626924 100134 4353.64
-622407 100107 4352.5
-618567 100190 4356.1
-614279 100202 4356.59
-610258 100257 4358.98
-605919 100260 4359.13
-602155 100359 4363.44
-597557 100320 4361.73
-593242 100328 4362.07
-588611 100282 4360.08
-584312 100292 4360.53
-580022 100305 4361.07
-575725 100316 4361.55
-571351 100314 4361.46
-566888 100296 4360.67
-562876 100358 4363.38
-558645 100382 4364.42
-554160 100360 4363.47
-550292 100450 4367.4
-546111 100484 4368.89
-541945 100522 4370.53
-537414 100492 4369.22
-533420 100563 4372.3
-529410 100632 4375.29
-525248 100673 4377.07
-521173 100731 4379.6
-516757 100724 4379.3
-512134 100676 4377.22
-507864 100697 4378.14
-503522 100704 4378.45
-499311 100738 4379.92
-493994 100547 4371.62
-489926 100610 4374.34
-485588 100617 4374.67
-481232 100621 4374.83
-476393 100523 4370.57
-472246 100571 4372.65
-468420 100688 4377.76
-464098 100700 4378.28
-459594 100673 4377.09
-454430 100499 4369.52
-450228 100536 4371.14
-446153 100603 4374.05
-443158 100917 4387.7
-438812 100927 4388.12
-434732 100998 4391.24
-430524 101041 4393.1
-426935 101232 4401.4
-0 0 0
-0 0 0
-0 0 0
-0 0 0
-0 0 0
-0 0 0
-0 0 0
-0 0 0
-0 0 0
-67183.3 17761.1 772.222
-71725.3 19182.4 834.015
-71705.8 19402.8 843.598
-70929.6 19421.2 844.4
-69878.2 19363.8 841.906
-68756.3 19285.3 838.491
-67645.8 19208.1 835.133
-66381.7 19084.7 829.771
-65377.5 19034 827.563
-64201.7 18931.3 823.099
-63275.7 18900.5 821.762
-62304.6 18855.3 819.798
-61374.3 18821.5 818.325
-60411.9 18776.7 816.377
-59483.7 18741.4 814.846
-58629 18728.7 814.291
-57735 18702.9 813.169
-56916.5 18701.1 813.093
-56134.7 18711.6 813.547
-55506.2 18774.2 816.267
-54786.7 18807.4 817.712
-54104.3 18854.5 819.762
-53198.5 18824.1 818.438
-52113 18728.1 814.266
-50482 18429.9 801.301
-0 0 0
-41734.4 15735.9 684.171
-39240.3 15042.1 654.005
-38134 14865.8 646.339
-37071.7 14700.8 639.167
-36308.3 14650.7 636.988
-35495.3 14578.4 633.844
-34902 14595.4 634.581
-34206 14569.2 633.445
-33558.1 14563 633.172
-32781.4 14499.5 630.411
-31933 14401.2 626.138
-31020.4 14269.4 620.407
-30103.7 14130.3 614.361
-29280.4 14030.2 610.009
-28496.9 13945.3 606.317
-27829.7 13914.9 604.994
-27187.5 13895.8 604.166
-26592.4 13900.6 604.373
-25999.3 13906.6 604.635
-25393.9 13906.2 604.616
-24809.2 13917.4 605.103
-24332 13990.9 608.301
-24072.3 14196.5 617.238
-23852.3 14436.9 627.691
-23464 14585.7 634.161
-22824.7 14582.5 634.02
-22221.2 14602.5 634.891
-21598.8 14611 635.26
-20979.6 14622.2 635.746
-20280 14576.2 633.749
-19643.5 14574.2 633.662
-19056.1 14609.7 635.203
-18445.8 14629.5 636.064
-17823.4 14640.6 636.549
-17222.5 14671 637.87
-16655.9 14734 640.61
-16072.3 14786.5 642.893
-15483.4 14838.3 645.144
-14893.1 14893.1 647.527
-14350.8 15003.1 652.308
-13822 15138.4 658.193
-13285.2 15278 664.26
-12707.5 15382.7 668.813
-12109.5 15473.2 672.749
-11407.7 15433.9 671.04
-10707.5 15392 669.218
-10040.1 15394.9 669.342
-9433.56 15498 673.826
-8894.77 15736.9 684.213
-8534.05 16356.9 711.171
-8467.2 17704.1 769.746
-8135.93 18712.6 813.593
-7509.36 19190.6 834.373
-6727.24 19340.8 840.905
-5876.12 19307.3 839.446
-5062.65 19406.8 843.774
-4249.27 19546.6 849.854
-3434.64 19749.2 858.661
-2582.99 19802.9 860.997
-1724.42 19830.8 862.211
-861.102 19805.4 861.102
0 19784.1 860.179
859.473 19767.9 859.473
1721.82 19801 860.912
2590.36 19859.4 863.454
3456 19872 863.999
4315.71 19852.3 863.142
5170.12 19818.8 861.686
6020.88 19782.9 860.125
6880.76 19782.2 860.095
7737.32 19773.1 859.702
8607 19796.1 860.7
9448.31 19755.6 858.938
10292.1 19726.5 857.674
11118 19670.3 855.229
11978.1 19678.2 855.575
12837.1 19683.6 855.807
13717.7 19719.2 857.355
14531.5 19660.2 854.792
15225.2 19454.4 845.843
15836 19170 833.476
16554.9 19038.2 827.746
17389.4 19045.6 828.069
18357.7 19192.1 834.44
19331.2 19331.2 840.489
19608.7 18791.6 817.028
19539.2 17976.1 781.568
19841.2 17551.9 763.125
20373 17354.8 754.556
21149.5 17372.8 755.341
22164.4 17578.7 764.29
23425.8 17959.8 780.859
24746.6 18360.4 798.278
25821.8 18559.4 806.932
26796.4 18676.3 812.013
27776.8 18790.2 816.964
28765.6 18903.1 821.873
29694.1 18971.3 824.837
30538.3 18983.3 825.359
31350.4 18975.3 825.011
32179.9 18977.9 825.126
33031.3 18993 825.782
33782 18950.9 823.952
34403.5 18840 819.132
34838.1 18634.4 810.189
35309.9 18457.5 802.499
35794.2 18294.8 795.426
36363.4 18181.7 790.508
36940.7 18077.3 785.971
37568.7 18001.7 782.68
38276.9 17966.7 781.161
39149.9 18009 782.998
40013.1 18045.1 784.57
40854.8 18070.4 785.669
41660 18078.9 786.038
42593.6 18141.7 788.771
43608.5 18236.3 792.881
44539.1 18292.9 795.342
45408.7 18322.8 796.643
46232.8 18333.7 797.116
47023.5 18331.2 797.009
47701.5 18285.6 795.024
48390.1 18245.5 793.281
49144.9 18231.2 792.66
50031.1 18265.3 794.145
50574.8 18175.3 790.232
50768.2 17964.1 781.049
50796.6 17701.9 769.646
51050.2 17524.7 761.944
51345.6 17366.9 755.082
51806.5 17268.8 750.819
52348.1 17200.1 747.83
53002.8 17169.9 746.519
53714.3 17158.7 746.031
54523.4 17178.6 746.895
55519.4 17256 750.262
56772.5 17410.2 756.967
58296.6 17642.4 767.06
59745.8 17846.2 775.92
60848.6 17942.5 780.11
61580.4 17928.5 779.499
61878.6 17790.1 773.483
62143.3 17645.6 767.201
62517.7 17535.5 762.411
63071.9 17477.8 759.903
63709.3 17444.2 758.444
64321 17404.5 756.718
64964.9 17374.3 755.406
65598 17342 754
66500.5 17380.8 755.687
67371.5 17410.6 756.983
68167.8 17420.6 757.419
68473.4 17306.5 752.455
68533.5 17133.4 744.93
68617 16969.8 737.818
68734.7 16818.1 731.22
69116.9 16733.6 727.546
69706.5 16700.5 726.109
70267.1 16661.3 724.403
70841.1 16626 722.868
71430.8 16595 721.523
72146.2 16593.6 721.462
72813.4 16581.3 720.924
73379.5 16546.4 719.407
74085.2 16543.3 719.274
74706.9 16521.7 718.336
75636.4 16568 720.347
76371.3 16571.1 720.484
77252.9 16605.8 721.99
77752.3 16558.3 719.928
78306.2 16523.3 718.406
78643 16443.5 714.936
78999.9 16369.3 711.711
79392.5 16303.8 708.862
79776.5 16237.7 705.987
80274.8 16195.8 704.164
80823.4 16164.7 702.812
81480.8 16155.7 702.421
82186 16156.2 702.445
82961.1 16170.4 703.06
83632.9 16164.3 702.797
84361.1 16169.2 703.009
85027.9 16162.3 702.71
85926.9 16199.3 704.319
86608 16195 704.13
87379 16207.4 704.669
88051.7 16201.5 704.414
89077.3 16260.1 706.963
90141.2 16324.8 709.773
91110.9 16371.5 711.804
91965.6 16397 712.912
92763.5 16412 713.565
93661.4 16444.4 714.973
94609.5 16485 716.738
96164.7 16630 723.043
99723.7 17116.8 744.207
0 0 0
404072 68335.8 2971.12
408756 68623.3 2983.62
411141 68523.5 2979.28
410522 67928.1 2953.4
403219 66243.1 2880.13
402289 65621.6 2853.11
406126 65780.9 2860.04
409464 65857.9 2863.39
411043 65652.7 2854.47
412363 65409.4 2843.89
414137 65240.7 2836.55
417501 65323.2 2840.14
420289 65315.2 2839.79
423550 65380.2 2842.62
427290 65517.8 2848.6
431098 65664 2854.96
434122 65689.6 2856.07
434145 65263.6 2837.55
430004 64221.4 2792.23
426503 63287.6 2751.63
427795 63072.3 2742.27
429773 62960.3 2737.41
432596 62972.8 2737.95
434342 62829.3 2731.71
437361 62870.6 2733.51
439624 62803.4 2730.58
442304 62796.2 2730.27
444899 62777.2 2729.44
447586 62771.2 2729.18
451187 62892.7 2734.47
454310 62946.6 2736.81
457634 63027.4 2740.32
461163 63135.4 2745.02
465015 63286.1 2751.57
469043 63458.7 2759.08
471713 63446.8 2758.56
475743 63616.8 2765.95
481177 63971.4 2781.37
488325 64548.8 2806.47
492388 64713.9 2813.65
492740 64392.2 2799.66
492458 63991.7 2782.25
491614 63523.2 2761.88
491452 63147.5 2745.54
491003 62739.3 2727.8
491780 62491.4 2717.02
492170 62197.3 2704.23
491652 61792.3 2686.62
490334 61291.7 2664.86
491157 61062.7 2654.9
492116 60853 2645.78
491913 60502.6 2630.55
490006 59947.5 2606.41
488809 59484.7 2586.29
487979 59071.2 2568.31
488697 58848.3 2558.62
487613 58412 2539.65
486663 57996.1 2521.57
486089 57629.1 2505.61
486244 57351.9 2493.56
487156 57166.3 2485.49
488389 57020 2479.13
488813 56781.3 2468.75
486346 56210.8 2443.95
0 0 0
0 0 0
0 0 0
0 0 0
0 0 0
0 0 0
0 0 0
0 0 0
0 0 0
0 0 0
0 0 0
515404 56181.5 2442.67
518873 56292.8 2447.51
520886 56245.9 2445.47
523300 56242.5 2445.33
0 0 0
0 0 0
0 0 0
0 0 0
0 0 0
0 0 0
0 0 0
0 0 0
0 0 0
0 0 0
0 0 0
0 0 0
0 0 0
0 0 0
0 0 0
0 0 0
0 0 0
0 0 0
0 0 0
0 0 0
0 0 0
0 0 0
0 0 0
0 0 0
0 0 0
0 0 0
0 0 0
0 0 0
0 0 0
0 0 0
0 0 0
0 0 0
0 0 0
0 0 0
0 0 0
0 0 0
0 0 0
0 0 0
0 0 0
0 0 0
0 0 0
-0 0 0
-524742 49387.4 2057.81
-522828 49401.1 2058.38
-519057 49238.6 2051.61
-515869 49130.4 2047.1
-515184 49260.6 2052.53
-515008 49440.8 2060.03
-512914 49437.5 2059.9
-510261 49380.1 2057.5
-507313 49293.6 2053.9
-506240 49389.2 2057.89
-504481 49418.5 2059.11
-503013 49476.7 2061.53
-501184 49499.7 2062.49
-500162 49602.9 2066.79
-497680 49561.5 2065.06
-493616 49361.5 2056.73
-490492 49254.4 2052.27
-489702 49381.7 2057.57
-487270 49343.8 2055.99
-487988 49625.9 2067.74
-486638 49699.2 2070.8
-486532 49900.7 2079.2
-483841 49837.7 2076.57
-481635 49824.3 2076.01
-479671 49835.9 2076.5
-476262 49696.9 2070.7
-474196 49697.4 2070.72
-472572 49744.4 2072.68
-472554 49961.7 2081.74
-472378 50164 2090.17
-473399 50495.9 2103.99
-0 0 0
-0 0 0
-0 0 0
-0 0 0
-552101 60229.2 2509.55
-552872 60588.7 2524.53
-551367 60701 2529.21
-547431 60545.3 2522.72
-543536 60392.8 2516.37
-543828 60706.4 2529.43
-0 0 0
-0 0 0
-629224 71232.9 2968.04
-631278 71804.1 2991.84
-630747 72085.4 3003.56
-629469 72283.5 3011.81
-632002 72923.3 3038.47
-632381 73319.5 3054.98
-631691 73595 3066.46
-632208 74014.6 3083.94
-633834 74568.7 3107.03
-633675 74917.2 3121.55
-633396 75255 3135.62
-633109 75595.1 3149.8
-636896 76427.5 3184.48
-637542 76889.5 3203.73
-636151 77109.2 3212.88
-636457 77537.9 3230.74
-636271 77910.7 3246.28
-643831 79240.7 3301.7
-0 0 0
-0 0 0
-0 0 0
-0 0 0
-0 0 0
-0 0 0
-0 0 0
-0 0 0
-0 0 0
-0 0 0
-0 0 0
-0 0 0
-634964 83731.5 3488.81
-0 0 0
-0 0 0
-0 0 0
-644570 86908.3 3621.18
-643503 87254.6 3635.61
-644562 87894.8 3662.28
-646024 88597.5 3691.56
-645913 89091.5 3712.14
-645667 89572.3 3732.18
-649381 90611.3 3775.47
-652671 91603 3816.79
-651489 91974.9 3832.29
-647578 91963.7 3831.82
-649401 92771.5 3865.48
-651296 93599.4 3899.97
-0 0 0
-656767 95529.8 3980.41
-660416 96646.2 4026.92
-667630 98301.4 4095.89
-669756 99223.1 4134.29
-669222 99759.7 4156.66
-669844 100477 4186.52
-667242 100716 4196.49
-668483 101542 4230.9
-667378 102020 4250.81
-666588 102552 4273
-666214 103156 4298.15
-665161 103661 4319.23
-661698 103796 4324.82
-658375 103954 4331.41
-654662 104052 4335.51
-651400 104224 4342.67
-647584 104309 4346.2
-643593 104366 4348.6
-639715 104443 4351.8
-635114 104402 4350.1
-630609 104377 4349.02
-625909 104318 4346.59
-622136 104414 4350.6
-618554 104544 4356.01
-613609 104444 4351.84
-609341 104458 4352.44
-605297 104512 4354.66
-601903 104679 4361.61
-597162 104612 4358.85
-592285 104521 4355.03
-587226 104396 4349.82
-582981 104415 4350.6
-579418 104557 4356.52
-575797 104690 4362.1
-571646 104729 4363.71
-567133 104701 4362.56
-562681 104685 4361.87
-558154 104654 4360.58
-553645 104626 4359.41
-549813 104726 4363.6
-545588 104753 4364.7
-541654 104836 4368.18
-537049 104790 4366.25
-532991 104851 4368.78
-528804 104887 4370.28
-524770 104954 4373.09
-520544 104984 4374.32
-516095 104968 4373.69
-511355 104893 4370.55
-507188 104935 4372.31
-502578 104886 4370.25
-498107 104865 4369.36
-492987 104705 4362.71
-488945 104774 4365.58
-484692 104798 4366.59
-480377 104809 4367.06
-475800 104763 4365.14
-471672 104816 4367.33
-467367 104830 4367.91
-463393 104919 4371.63
-459322 104988 4374.49
-454174 104809 4367.06
-449596 104760 4365.01
-445863 104909 4371.21
-443629 105417 4392.36
-438686 105285 4386.86
-434581 105353 4389.71
-430417 105408 4392.01
-426720 105580 4399.18
-0 0 0
-0 0 0
-0 0 0
-0 0 0
-0 0 0
-0 0 0
-0 0 0
-0 0 0
-0 0 0
-71140.5 19625 817.707
-71737.8 20019.8 834.16
-71497 20187.4 841.141
-70664.6 20189.9 841.245
-69628.1 20133.4 838.892
-68504.2 20050 835.417
-67392.7 19968.2 832.009
-66218.6 19865.6 827.733
-65285.8 19833.7 826.403
-64149.3 19738.2 822.427
-63220.1 19705 821.04
-62217.1 19647.5 818.646
-61250.5 19600.2 816.673
-60252.1 19541.2 814.217
-59316.8 19501.4 812.559
-58425.4 19475.1 811.464
-57536.9 19449.1 810.379
-56644.8 19421.1 809.211
-55884.5 19438.1 809.921
-55246.3 19498.7 812.445
-54626.5 19567.7 815.321
-54014.5 19641.7 818.402
-53020.4 19576.7 815.698
-51686.6 19382.5 807.603
-0 0 0
-42394 16410.6 683.774
-39667.2 15606.8 650.282
-38394.5 15357.8 639.908
-37563.5 15280.1 636.67
-36658.6 15169.1 632.046
-35929.6 15128.2 630.344
-35201.1 15086.2 628.591
-34620.5 15107.1 629.463
-33919.3 15075.2 628.135
-33304 15081 628.377
-32573.3 15033.8 626.409
-31741.4 14937.2 622.381
-30763.3 14766.4 615.266
-29869.7 14630 609.585
-29102.2 14551.1 606.297
-28350.3 14476.8 603.198
-27640 14420.9 600.87
-27035.8 14419.1 600.795
-26471.4 14438.9 601.622
-25925.4 14470 602.917
-25268 14438.8 601.619
-24650.8 14429.7 601.239
-24101.5 14460.9 602.536
