-103906 -423617 1998.19
-102716 -426975 2014.03
-101822 -431725 2036.44
-98617.8 -426673 2012.61
-95049.6 -419802 1980.2
-94139.9 -424631 2002.98
-92014.3 -424066 2000.31
-90747 -427519 2016.6
-88029.6 -424143 2000.67
-85926.1 -423636 1998.28
-83827.8 -423131 1995.9
-81969.4 -423842 1999.25
-80766.5 -428063 2019.16
-77485.5 -421203 1986.81
-76413.1 -426305 2010.87
-73230 -419588 1979.19
-72077.2 -424454 2002.14
-69366.7 -420164 1981.91
-68308.2 -425922 2009.06
-67091.8 -431014 2033.08
-63853.9 -423032 1995.44
-62243.6 -425666 2007.86
-59648.1 -421513 1988.27
-57718 -421938 1990.28
-56498.5 -427774 2017.8
-54700.4 -429499 2025.94
-52937.6 -431645 2036.06
-49886 -423033 1995.44
-48342.4 -427024 2014.26
-46367.6 -427389 2015.98
-44635.2 -430121 2028.87
-42125.2 -425264 2005.96
-40769.1 -432153 2038.46
-37746 -421165 1986.63
-36610.3 -431187 2033.9
-34374.3 -428667 2022.02
-32038.1 -424505 2002.38
-29994 -423916 1999.6
-28206.2 -427123 2014.73
-26320.8 -429232 2024.68
-23949.9 -423115 1995.83
-22111.3 -426145 2010.12
-20125.5 -426661 2012.55
-18054.9 -425294 2006.11
-15922.3 -421941 1990.29
-14282.1 -432542 2040.29
-12068.8 -426431 2011.47
-10107.1 -428541 2021.42
-7979.45 -422911 1994.86
-6030.25 -426138 2010.08
-3995.06 -423476 1997.53
-2029.14 -430178 2029.14
0 -431159 2033.77
2011.89 -426520 2011.89
4051.23 -429430 2025.61
6017.85 -425262 2005.95
8131.92 -430992 2032.98
10140 -429937 2028
12154.1 -429445 2025.69
14163.7 -428956 2023.38
16170.9 -428528 2021.36
18310.6 -431315 2034.51
20021 -424444 2002.1
22100.1 -425930 2009.1
23928.9 -422743 1994.07
26054.8 -424894 2004.22
27931.2 -422958 1995.08
30234.4 -427312 2015.62
32205.1 -426718 2012.82
34192.3 -426398 2011.31
35817.9 -421855 1989.88
38272.6 -427041 2014.35
39704.5 -420867 1985.22
42181.7 -425834 2008.65
44434.1 -428183 2019.73
46443.6 -428089 2019.29
48254.2 -426245 2010.59
50207.5 -425759 2008.3
51906.1 -423235 1996.39
54449.6 -427530 2016.65
56290 -426196 2010.36
57960.9 -423715 1998.65
59737.3 -422144 1991.24
62576.1 -427939 2018.58
64459.3 -427043 2014.35
65468.4 -420585 1983.89
68177.1 -425104 2005.21
69781.2 -422675 1993.75
71637.6 -421866 1989.93
73765 -422653 1993.65
76280.9 -425567 2007.39
77594.1 -421794 1989.59
81143 -430058 2028.57
82582.3 -427011 2014.2
84072.3 -424365 2001.72
85808.2 -423054 1995.54
87027.8 -419316 1977.9
89619 -422205 1991.53
92149.6 -424690 2003.25
93617.2 -422274 1991.86
96232.8 -425028 2004.85
97262.5 -420809 1984.95
100213 -424902 2004.25
103065 -428427 2020.88
103578 -422279 1991.88
105185 -420738 1984.61
108663 -426604 2012.28
110625 -426408 2011.36
112088 -424332 2001.57
113708 -422913 1994.87
116355 -425299 2006.13
118680 -426444 2011.53
120400 -425414 2006.67
121655 -422803 1994.35
123937 -423786 1998.99
125697 -422980 1995.19
128852 -426821 2013.31
130348 -425135 2005.35
131982 -423943 1999.73
135349 -428267 2020.13
134910 -420602 1983.97
136330 -418869 1975.8
139515 -422532 1993.08
141870 -423612 1998.17
144137 -424404 2001.9
146807 -426345 2011.06
147794 -423409 1997.21
150565 -425598 2007.54
150564 -419994 1981.11
154759 -426089 2009.85
156052 -424142 2000.67
158204 -424547 2002.58
161314 -427483 2016.43
162385 -425008 2004.76
163992 -423979 1999.9
166071 -424182 2000.86
167436 -422577 1993.29
169249 -422127 1991.17
171164 -421939 1990.28
172963 -421473 1988.08
177139 -426743 2012.94
177959 -423903 1999.54
179288 -422323 1992.09
181106 -421918 1990.18
185690 -427895 2018.37
187388 -427163 2014.92
189599 -427607 2017.01
188625 -420932 1985.53
194005 -428429 2020.89
195021 -426231 2010.52
194187 -420078 1981.5
199227 -426627 2012.39
197963 -419681 1979.63
201000 -421901 1990.1
200488 -416701 1965.57
205434 -422835 1994.5
208888 -425811 2008.54
211388 -426803 2013.22
211391 -422782 1994.25
214682 -425351 2006.37
215172 -422375 1992.34
217856 -423720 1998.68
218207 -420545 1983.7
219478 -419184 1977.28
221583 -419426 1978.42
228878 -429400 2025.47
226350 -420931 1985.52
229536 -423145 1995.97
234025 -427700 2017.45
231344 -419188 1977.3
236357 -424641 2003.02
238005 -424008 2000.04
235028 -415216 1958.57
241225 -422642 1993.59
245433 -426491 2011.75
246408 -424703 2003.32
246493 -421424 1987.85
245748 -416788 1965.98
254088 -427513 2016.57
253037 -422393 1992.42
250828 -415434 1959.59
258310 -424509 2002.4
260603 -424983 2004.64
262528 -424855 2004.03
263576 -423318 1996.78
262605 -418589 1974.48
264296 -418139 1972.35
266688 -418800 1975.47
270405 -421514 1988.27
274691 -425069 2005.04
267994 -411701 1941.98
271304 -413787 1951.83
278939 -422394 1992.42
272031 -409011 1929.3
281308 -419980 1981.04
285093 -422655 1993.66
282114 -415334 1959.12
287556 -420426 1983.14
287551 -417540 1969.53
292276 -421514 1988.27
293755 -420785 1984.83
294109 -418464 1973.89
295508 -417651 1970.05
298125 -418560 1974.34
300542 -419177 1977.25
302215 -418755 1975.26
303374 -417632 1969.96
303923 -415689 1960.8
303817 -412880 1947.55
309738 -418246 1972.86
313341 -420432 1983.17
310124 -413499 1950.47
308247 -408427 1926.54
318031 -418774 1975.35
319313 -417866 1971.07
322606 -419586 1979.18
314117 -406054 1915.35
324226 -416581 1965
330634 -422255 1991.77
327014 -415131 1958.17
332737 -419882 1980.58
326406 -409456 1931.4
327592 -408527 1927.01
337340 -418223 1972.75
332719 -410095 1934.41
338744 -415108 1958.06
343300 -418273 1972.99
341808 -414076 1953.19
341004 -410755 1937.52
340528 -407864 1923.89
0 -0 0
351056 -415776 1961.21
350635 -412970 1947.97
359456 -421021 1985.95
348737 -406221 1916.14
358439 -415241 1958.68
357107 -411450 1940.8
365284 -418596 1974.51
365556 -416655 1965.35
366512 -415510 1959.96
362679 -408978 1929.14
362368 -406465 1917.29
368779 -411480 1940.94
367936 -408390 1926.37
370011 -408554 1927.14
371225 -407770 1923.45
371716 -406205 1916.06
371992 -404422 1907.65
377167 -407956 1924.32
378145 -406938 1919.52
379444 -406273 1916.38
384175 -409272 1930.53
387004 -410224 1935.02
378482 -399195 1882.99
387728 -406922 1919.44
384449 -401493 1893.84
390180 -405481 1912.65
396335 -409869 1933.34
393205 -404657 1908.76
0 -0 0
408804 -416665 1965.4
404306 -410109 1934.48
402917 -406755 1918.65
0 -0 0
0 -0 0
0 -0 0
401325 -397574 1875.35
393261 -387774 1829.12
413040 -405391 1912.22
406416 -397051 1872.88
0 -0 0
418734 -405349 1912.03
422208 -406855 1919.13
410395 -393682 1856.99
417016 -398231 1878.45
0 -0 0
0 -0 0
439902 -414485 1955.12
0 -0 0
418504 -390849 1843.63
0 -0 0
0 -0 0
427024 -393604 1856.62
0 -0 0
437134 -399450 1884.2
0 -0 0
436097 -395097 1863.66
0 -0 0
438114 -393560 1856.42
0 -0 0
0 -0 0
0 -0 0
0 -0 0
0 -0 0
0 -0 0
0 -0 0
0 -0 0
0 -0 0
0 -0 0
0 -0 0
0 -0 0
0 -0 0
0 -0 0
0 -0 0
0 -0 0
0 -0 0
0 -0 0
0 -0 0
-0 -0 0
-470606 -389403 1845.51
-0 -0 0
-467782 -390126 1848.94
-462349 -387125 1834.72
-0 -0 0
-463898 -391529 1855.59
-0 -0 0
-0 -0 0
-445442 -380519 1803.41
-453847 -389275 1844.91
-0 -0 0
-0 -0 0
-465291 -404018 1914.78
-457061 -398512 1888.68
-463322 -405647 1922.5
-0 -0 0
-0 -0 0
-447860 -397052 1881.76
-0 -0 0
-0 -0 0
-447893 -402151 1905.93
-442505 -399011 1891.05
-437086 -395816 1875.91
-0 -0 0
-0 -0 0
-0 -0 0
-0 -0 0
-432477 -400231 1896.83
-431847 -401408 1902.41
-428304 -399877 1895.15
-430426 -403644 1913
-431910 -406843 1928.17
-0 -0 0
-426550 -405415 1921.4
-0 -0 0
-0 -0 0
-0 -0 0
-0 -0 0
-0 -0 0
-418470 -408784 1937.36
-0 -0 0
-405863 -400173 1896.55
-409814 -405966 1924.01
-408824 -406896 1928.42
-407367 -407367 1930.65
-0 -0 0
-398027 -401836 1904.44
-0 -0 0
-401626 -409387 1940.22
-0 -0 0
-397235 -408861 1937.73
-397265 -410896 1947.38
-391965 -407412 1930.86
-395553 -413176 1958.18
-394008 -413610 1960.24
-390574 -412056 1952.87
-388892 -412343 1954.23
-389791 -415384 1968.64
-386390 -413849 1961.37
-385123 -414596 1964.91
-378794 -409874 1942.53
-375858 -408794 1937.41
-374435 -409356 1940.08
-374641 -411714 1951.25
-379344 -419066 1986.09
-374991 -416437 1973.63
-373906 -417430 1978.34
-372857 -418473 1983.28
-371426 -419096 1986.24
-370252 -420017 1990.6
-361682 -412513 1955.04
-361885 -414987 1966.77
-360077 -415170 1967.63
-359967 -417324 1977.84
-357384 -416619 1974.5
-355297 -416487 1973.87
-353524 -416724 1975
-351889 -417127 1976.91
-349592 -416745 1975.1
-348035 -417247 1977.47
-346050 -417238 1977.43
-342920 -415840 1970.8
-339845 -414493 1964.42
-337540 -414075 1962.44
-340841 -420570 1993.22
-338746 -420443 1992.62
-335472 -418844 1985.04
-331553 -416415 1973.53
-329890 -416807 1975.39
-329169 -418401 1982.94
-326855 -417978 1980.94
-324909 -418023 1981.15
-323563 -418845 1985.05
-321779 -419107 1986.29
-317758 -416440 1973.65
-317581 -418811 1984.88
-315584 -418793 1984.8
-313724 -418960 1985.59
-312670 -420212 1991.53
-310941 -420568 1993.21
-308697 -420226 1991.59
-303867 -416337 1973.16
-301481 -415768 1970.47
-301036 -417885 1980.5
-299312 -418245 1982.2
-298099 -419326 1987.32
-294690 -417313 1977.79
-293754 -418798 1984.83
-291708 -418710 1984.41
-289658 -418616 1983.96
-287076 -417745 1979.83
-286980 -420505 1992.92
-286540 -422797 2003.78
-285053 -423565 2007.42
-281569 -421354 1996.94
-279318 -420971 1995.13
-277677 -421510 1997.68
-276232 -422355 2001.68
-274485 -422747 2003.54
-272785 -423217 2005.77
-270442 -422691 2003.28
-267149 -420660 1993.65
-265384 -421022 1995.37
-263629 -421407 1997.19
-262627 -423010 2004.78
-260656 -423064 2005.04
-258803 -423314 2006.23
-255754 -421595 1998.08
-253079 -420470 1992.75
-251104 -420499 1992.89
-249687 -421471 1997.5
-248881 -423499 2007.1
-247415 -424427 2011.5
-245545 -424673 2012.67
-243286 -424242 2010.63
-239944 -421902 1999.54
-237368 -420879 1994.69
-236096 -422171 2000.81
-235255 -424264 2010.73
-233199 -424181 2010.34
-230026 -422048 2000.23
-226671 -419540 1988.34
-225170 -420450 1992.66
-223427 -420920 1994.88
-221881 -421773 1998.92
-220724 -423388 2006.58
-218750 -423452 2006.88
-217260 -424462 2011.67
-214874 -423724 2008.17
-213171 -424331 2011.05
-211210 -424431 2011.52
-209772 -425596 2017.04
-207708 -425499 2016.58
-205440 -424978 2014.11
-203247 -424605 2012.35
-201259 -424657 2012.59
-199186 -424527 2011.98
-197208 -424602 2012.33
-195204 -424619 2012.41
-192951 -424090 2009.91
-191400 -425108 2014.73
-188644 -423445 2006.85
-186725 -423645 2007.8
-184182 -422418 2001.98
-182748 -423734 2008.22
-180415 -422973 2004.61
-179054 -424500 2011.85
-177152 -424762 2013.09
-175046 -424537 2012.02
-173077 -424643 2012.53
-171102 -424736 2012.97
-169423 -425575 2016.94
-167324 -425365 2015.95
-165434 -425690 2017.49
-163279 -425331 2015.79
-160951 -424507 2011.88
-159094 -424921 2013.84
-157135 -425070 2014.55
-155247 -425418 2016.2
-153123 -425118 2014.78
-151256 -425534 2016.75
-148940 -424681 2012.71
-147365 -425945 2018.7
-145223 -425585 2016.99
-143007 -424992 2014.18
-140448 -423351 2006.41
-138651 -423991 2009.44
-136770 -424391 2011.33
-134524 -423650 2007.82
-132376 -423203 2005.7
-130252 -422818 2003.88
-128254 -422836 2003.96
-126346 -423159 2005.49
-124801 -424725 2012.92
-122837 -424897 2013.73
-120741 -424605 2012.35
-118611 -424187 2010.36
-116925 -425365 2015.95
-114712 -424637 2012.5
-112386 -423456 2006.9
-110321 -423231 2005.83
-108569 -424224 2010.54
-106864 -425440 2016.3
-105041 -426226 2020.03
-103186 -426909 2023.26
-101201 -427069 2024.03
-99104.2 -426755 2022.54
-96943.2 -426146 2019.65
-94675.2 -425031 2014.36
-92791.2 -425629 2017.2
-90885.2 -426151 2019.67
-88950.7 -426559 2021.61
-86609.6 -424991 2014.18
-84507.2 -424548 2012.08
-82633.5 -425260 2015.45
-80668.1 -425524 2016.7
-78586.9 -425175 2015.05
-76337 -423871 2008.87
-74425 -424424 2011.49
-72465.1 -424726 2012.92
-70488.2 -424943 2013.95
-68400.3 -424484 2011.77
-66498.4 -425187 2015.1
-64761.8 -427023 2023.81
-62750 -427105 2024.19
-60605.8 -426261 2020.19
-58601.6 -426377 2020.74
-56730.1 -427502 2026.07
-54876.7 -428852 2032.47
-52645.8 -427241 2024.84
-50444.2 -425749 2017.77
-48270.7 -424380 2011.28
-46314.6 -424886 2013.68
-44348.6 -425344 2015.85
-42462.2 -426644 2022.01
-40467.9 -426936 2023.39
-38398.2 -426422 2020.96
-36279.9 -425281 2015.55
-34283.6 -425520 2016.68
-32265 -425495 2016.56
-30226.5 -425186 2015.1
-28253.2 -425817 2018.09
-26273.9 -426445 2021.07
-24306.7 -427394 2025.56
-22225.5 -426325 2020.5
-20211.8 -426468 2021.18
-18168.4 -425948 2018.71
-16174.4 -426600 2021.8
-14141 -426251 2020.15
-12116.2 -426086 2019.36
-10100.8 -426252 2020.15
-8077.8 -426104 2019.45
-6042 -424954 2014
-4025.82 -424724 2012.91
-2020.2 -426262 2020.2
0 -427879 2027.86
2022.17 -426677 2022.17
4026.45 -424790 2013.22
6029.04 -424042 2009.68
8051.05 -424693 2012.76
10077.1 -425253 2015.42
12108.6 -425818 2018.1
14107.8 -425249 2015.4
16172.7 -426556 2021.59
18185.7 -426354 2020.63
20195.3 -426121 2019.53
22117.2 -424248 2010.66
24143.4 -424521 2011.95
26192 -425117 2014.77
28237.1 -425573 2016.93
30277.6 -425905 2018.51
32350 -426615 2021.87
34341 -426233 2020.06
36313.6 -425676 2017.42
38171.3 -423903 2009.02
40225.7 -424381 2011.28
42334.4 -425360 2015.92
44403.3 -425868 2018.33
46342.7 -425144 2014.9
48308.3 -424710 2012.84
50306.2 -424584 2012.25
52381.3 -425094 2014.66
54461.5 -425607 2017.09
56552.4 -426163 2019.73
58498.7 -425629 2017.2
60312 -424194 2010.4
62281.7 -423917 2009.09
64348.8 -424300 2010.9
66494.7 -425163 2014.99
68340.7 -424114 2010.02
70334.9 -424019 2009.57
72478.4 -424804 2013.29
74778.8 -426441 2021.05
76796 -426420 2020.95
78762.1 -426123 2019.54
80717.8 -425787 2017.95
82653.3 -425362 2015.93
84513.2 -424578 2012.22
86324.7 -423593 2007.55
88504.3 -424418 2011.46
90566 -424654 2012.58
92584.4 -424681 2012.7
94368.7 -423655 2007.84
96292.5 -423286 2006.09
98249.4 -423074 2005.09
100433 -423827 2008.66
102563 -424329 2011.04
104601 -424440 2011.56
106531 -424115 2010.02
108571 -424230 2010.57
110578 -424219 2010.52
112524 -423972 2009.35
114631 -424335 2011.07
116895 -425256 2015.43
118792 -424834 2013.43
120695 -424445 2011.59
122421 -423455 2006.9
124011 -422037 2000.18
126291 -422976 2004.62
128824 -424715 2012.87
131169 -425796 2017.99
133190 -425806 2018.04
134887 -424792 2013.23
136617 -423916 2009.08
138326 -422997 2004.72
140748 -424254 2010.68
142886 -424632 2012.47
145158 -425394 2016.08
147034 -424988 2014.16
149373 -425915 2018.55
150768 -424162 2010.25
152675 -423874 2008.88
154403 -423105 2005.24
156855 -424314 2010.97
158516 -423377 2006.53
160454 -423197 2005.68
162341 -422887 2004.21
164221 -422569 2002.7
166195 -422497 2002.36
168213 -422536 2002.54
170428 -423063 2005.04
172310 -422761 2003.61
174582 -423411 2006.69
176630 -423510 2007.16
178368 -422872 2004.13
179910 -421789 1999
182426 -422989 2004.69
184716 -423641 2007.78
187067 -424422 2011.48
188526 -423181 2005.6
191109 -424463 2011.67
193470 -425230 2015.31
195203 -424616 2012.4
196624 -423343 2006.37
198016 -422034 2000.16
199870 -421727 1998.7
201239 -420410 1992.46
203508 -420982 1995.17
205687 -421358 1996.96
208209 -422423 2002.01
210136 -422272 2001.29
212355 -422707 2003.35
214254 -422501 2002.37
216811 -423585 2007.51
218646 -423251 2005.93
220243 -422466 2002.21
222044 -422084 2000.4
225076 -424027 2009.61
226963 -423798 2008.52
228685 -423268 2006.01
230541 -422993 2004.71
232816 -423485 2007.04
234977 -423761 2008.35
236492 -422880 2004.17
238021 -422037 2000.18
239962 -421934 1999.69
242329 -422574 2002.72
244344 -422596 2002.82
246422 -422724 2003.43
247851 -421747 1998.8
249626 -421369 1997.01
251347 -420906 1994.82
254219 -422364 2001.73
256451 -422744 2003.52
257824 -421713 1998.64
259590 -421335 1996.85
261038 -420451 1992.66
262736 -419979 1990.42
264384 -419436 1987.85
266064 -418952 1985.55
268272 -419299 1987.2
270794 -420129 1991.13
271789 -418595 1983.86
272814 -417128 1976.91
275062 -417540 1978.86
277190 -417765 1979.93
280150 -419232 1986.88
282656 -420003 1990.53
285401 -421116 1995.81
285941 -418982 1985.7
287023 -417668 1979.47
289987 -419091 1986.21
292906 -420429 1992.56
294999 -420573 1993.24
297143 -420787 1994.25
298128 -419366 1987.52
300482 -419879 1989.95
302012 -419241 1986.92
303135 -418049 1981.27
304275 -416896 1975.81
306454 -417173 1977.12
309040 -417996 1981.02
311236 -418285 1982.39
312958 -417938 1980.75
313046 -415426 1968.84
313744 -413751 1960.9
315727 -413779 1961.04
318994 -415480 1969.1
321282 -415892 1971.05
323459 -416157 1972.31
325994 -416878 1975.72
327924 -416819 1975.45
329156 -415880 1970.99
329381 -413687 1960.6
330081 -412114 1953.14
331819 -411846 1951.87
334913 -413255 1958.55
337558 -414097 1962.54
338693 -413088 1957.76
342570 -415416 1968.8
343634 -414324 1963.62
343909 -412300 1954.03
345059 -411342 1949.49
347380 -411782 1951.57
349209 -411637 1950.89
352922 -413702 1960.68
354971 -413806 1961.17
356561 -413375 1959.12
356391 -410920 1947.49
361969 -415084 1967.22
363521 -414610 1964.98
366027 -415225 1967.89
366504 -413541 1959.91
366416 -411244 1949.02
366412 -409064 1938.69
369133 -409932 1942.81
371277 -410154 1943.86
371828 -408624 1936.6
371380 -406016 1924.25
374166 -406954 1928.69
376389 -407273 1930.2
378578 -407550 1931.52
383403 -410650 1946.21
387582 -413030 1957.49
387561 -410931 1947.54
387042 -408330 1935.21
386258 -405475 1921.68
385942 -403137 1910.6
388046 -403339 1911.56
395041 -408597 1936.48
397171 -408796 1937.42
397404 -407050 1929.15
400502 -408241 1934.79
401694 -407488 1931.22
401762 -405607 1922.31
400672 -402580 1907.96
401597 -401597 1903.3
403131 -401230 1901.56
408800 -404961 1919.25
407410 -401698 1903.78
406231 -398674 1889.45
406328 -396922 1881.15
411222 -399852 1895.03
415560 -402217 1906.24
0 -0 0
417142 -400077 1896.1
418180 -399258 1892.22
417407 -396725 1880.21
0 -0 0
0 -0 0
0 -0 0
0 -0 0
0 -0 0
0 -0 0
0 -0 0
430159 -394624 1870.26
0 -0 0
0 -0 0
0 -0 0
0 -0 0
0 -0 0
0 -0 0
0 -0 0
0 -0 0
0 -0 0
0 -0 0
0 -0 0
0 -0 0
0 -0 0
0 -0 0
0 -0 0
0 -0 0
0 -0 0
0 -0 0
0 -0 0
0 -0 0
0 -0 0
0 -0 0
0 -0 0
0 -0 0
0 -0 0
-0 -0 0
-0 -0 0
-474939 -392666 1869.84
-0 -0 0
-0 -0 0
-459138 -384139 1829.23
-461439 -387609 1845.76
-461190 -388955 1852.17
-462885 -391959 1866.47
-447928 -380830 1813.47
-0 -0 0
-457387 -392046 1866.89
-0 -0 0
-467869 -404331 1925.39
-472401 -409934 1952.07
-0 -0 0
-0 -0 0
-0 -0 0
-0 -0 0
-0 -0 0
-0 -0 0
-0 -0 0
-0 -0 0
-440045 -396607 1888.6
-0 -0 0
-0 -0 0
-0 -0 0
-0 -0 0
-432919 -398741 1898.77
-433886 -401392 1911.39
-434519 -403756 1922.65
-433585 -404679 1927.04
-435196 -407996 1942.84
-430255 -405173 1929.4
-427350 -404250 1925
-424744 -403603 1921.92
-423246 -404008 1923.85
-415926 -398833 1899.2
-0 -0 0
-421050 -407468 1940.32
-417020 -405436 1930.65
-412066 -402483 1916.58
-411889 -404190 1924.71
-0 -0 0
-410173 -406303 1934.78
-407408 -405477 1930.84
-403947 -403947 1923.56
-403857 -405790 1932.33
-404499 -408388 1944.71
-402859 -408697 1946.18
-401317 -409109 1948.14
-0 -0 0
-400729 -412516 1964.36
-396843 -410527 1954.89
-394158 -409768 1951.28
-398686 -416537 1983.51
-393037 -412689 1965.18
-390501 -412087 1962.32
-391560 -415291 1977.58
-390853 -416645 1984.02
-387314 -414979 1976.09
-383861 -413389 1968.52
-377788 -408945 1947.36
-377060 -410273 1953.68
-375216 -410392 1954.25
-374911 -412206 1962.89
-375709 -415258 1977.42
-374807 -416452 1983.11
-371140 -414571 1974.15
-368653 -413995 1971.41
-365993 -413218 1967.7
-364418 -413664 1969.83
-360939 -411941 1961.63
-359832 -412922 1966.29
-358120 -413215 1967.69
-357143 -414365 1973.17
-357374 -416936 1985.41
-356722 -418500 1992.86
-353609 -417179 1986.57
-350280 -415586 1978.98
-347970 -415192 1977.1
-346323 -415587 1978.99
-342286 -413104 1967.16
-339482 -412088 1962.33
-339673 -414717 1974.84
-341451 -419326 1996.79
-342103 -422598 2012.37
-339313 -421632 2007.77
-334420 -418025 1990.59
-332462 -418067 1990.79
-329752 -417156 1986.46
-327560 -416894 1985.21
-325566 -416884 1985.16
-323225 -416425 1982.98
-321451 -416695 1984.26
-321754 -419679 1998.47
-318500 -418031 1990.62
-316367 -417844 1989.73
-314340 -417794 1989.5
-314930 -421244 2005.92
-312796 -421072 2005.1
-310194 -420262 2001.25
-306381 -417793 1989.49
-304235 -417578 1988.47
-301917 -417123 1986.3
-299885 -417058 1985.99
-298648 -418107 1990.99
-296804 -418315 1991.97
-295786 -419697 1998.56
-292945 -418493 1992.82
-292019 -420027 2000.13
-289645 -419486 1997.55
-289241 -421810 2008.62
-287222 -421794 2008.54
-285498 -422216 2010.55
-282764 -421138 2005.42
-280648 -420972 2004.63
-278553 -420835 2003.98
-276646 -420982 2004.68
-274494 -420756 2003.6
-272816 -421260 2006
-270130 -420202 2000.96
-267877 -419808 1999.09
-266428 -420675 2003.21
-264468 -420745 2003.55
-263323 -422121 2010.1
-261904 -423076 2014.65
-260110 -423434 2016.35
-256855 -421403 2006.68
-254380 -420629 2002.99
-252118 -420197 2000.94
-250671 -421127 2005.37
-248920 -421558 2007.42
-248226 -423800 2018.09
-246373 -424084 2019.45
-243568 -422721 2012.96
-240479 -420839 2003.99
-238457 -420806 2003.84
-237170 -422082 2009.91
-235595 -422863 2013.63
-232790 -421431 2006.81
-230562 -421026 2004.89
-228543 -421000 2004.76
-226154 -420287 2001.37
-224244 -420457 2002.18
-222502 -420950 2004.52
-221579 -423015 2014.36
-219415 -422727 2012.99
-217690 -423287 2015.65
-215680 -423297 2015.7
-213643 -423256 2015.5
-211867 -423735 2017.78
-210272 -424587 2021.84
-208219 -424524 2021.54
-205815 -423738 2017.8
-203592 -423311 2015.76
-202103 -424416 2021.03
-200386 -425061 2024.1
-198104 -424510 2021.47
-195776 -423845 2018.31
-193271 -422779 2013.24
-191393 -423079 2014.66
-189316 -422940 2014
-187408 -423178 2015.14
-185133 -422585 2012.31
-183218 -422810 2013.38
-181513 -423531 2016.81
-180131 -425028 2023.94
-178126 -425074 2024.16
-175814 -424379 2020.85
-173613 -423939 2018.76
-171784 -424408 2020.99
-170016 -425041 2024
-168026 -425125 2024.41
-165930 -424942 2023.53
-163746 -424527 2021.56
-161562 -424099 2019.52
-159447 -423845 2018.31
-157557 -424193 2019.97
-155476 -424025 2019.17
-153255 -423469 2016.52
-151519 -424252 2020.25
-149395 -423958 2018.85
-147694 -424874 2023.21
-145478 -424311 2020.53
-143086 -423214 2015.3
-140570 -421710 2008.14
-138696 -422119 2010.09
-137053 -423252 2015.49
-135156 -423623 2017.25
-132844 -422686 2012.79
-130839 -422710 2012.91
-129018 -423342 2015.91
-127439 -424798 2022.85
-125542 -425222 2024.86
-123260 -424338 2020.66
-121042 -423647 2017.37
-118986 -423510 2016.71
-117035 -423747 2017.84
-115045 -423851 2018.34
-112875 -423280 2015.62
-110941 -423592 2017.1
-109006 -423911 2018.62
-107077 -424269 2020.33
-105150 -424643 2022.11
-103151 -424738 2022.56
-101223 -425138 2024.47
-99291.6 -425535 2026.36
-97478.4 -426468 2030.8
-95140 -425094 2024.26
-93009.1 -424607 2021.94
-91215.3 -425671 2027.01
-89380.5 -426589 2031.37
-87209.7 -425908 2028.13
-85097.6 -425488 2026.13
-83065.1 -425456 2025.98
-81118.4 -425871 2027.96
-78977.8 -425265 2025.07
-76886.3 -424898 2023.32
-74903.9 -425130 2024.43
-72991.5 -425784 2027.54
-70890.2 -425341 2025.43
-68661.1 -424083 2019.44
-66668.3 -424253 2020.25
-64887.4 -425824 2027.73
-63045.8 -427084 2033.73
-60987.7 -426914 2032.92
-58948.8 -426871 2032.72
-56956.9 -427176 2034.17
-54969.8 -427543 2035.92
-52751.6 -426071 2028.91
-50515.1 -424327 2020.61
-48392.7 -423436 2016.36
-46454.2 -424147 2019.75
-44548.2 -425233 2024.92
-42505.2 -425052 2024.06
-40560.8 -425889 2028.04
-38480.6 -425312 2025.3
-36436 -425087 2024.22
-34421.5 -425207 2024.8
-32448.7 -425889 2028.04
-30390.7 -425470 2026.05
-28305.8 -424587 2021.84
-26332.1 -425365 2025.55
-24405.6 -427098 2033.8
-22342.6 -426540 2031.14
-20300.8 -426317 2030.08
-18263.1 -426139 2029.23
-16252 -426614 2031.5
-14192.8 -425784 2027.54
-12125 -424376 2020.84
-10122.9 -425161 2024.58
-8104.33 -425477 2026.08
-6072.38 -425066 2024.13
-4037.48 -423935 2018.74
-2023.5 -424936 2023.5
0 -426077 2028.94
2025.24 -425300 2025.24
4038.28 -424019 2019.14
6047.98 -423359 2015.99
8074.88 -423931 2018.72
10100.7 -424229 2020.14
12128.8 -424510 2021.47
14146.6 -424397 2020.94
16187.4 -424919 2023.43
18233.1 -425440 2025.9
20238.6 -425011 2023.86
22215.7 -424117 2019.61
24267.4 -424680 2022.28
26366.5 -425921 2028.19
28367.5 -425512 2026.25
30362 -425068 2024.13
32414.2 -425436 2025.89
34439.3 -425426 2025.84
36437.7 -425106 2024.31
38417.6 -424615 2021.98
40488 -425124 2024.4
42500.3 -425003 2023.83
44545.1 -425203 2024.78
46493.5 -424506 2021.46
48431.4 -423775 2017.98
50396.5 -423331 2015.86
52515.1 -424161 2019.81
54589.8 -424587 2021.84
56787.9 -425909 2028.14
58805.1 -425830 2027.76
60699.4 -424896 2023.31
62610.7 -424137 2019.7
64641.8 -424212 2020.06
66839.7 -425343 2025.44
68813.5 -425025 2023.93
70744.3 -424466 2021.26
72843.9 -424922 2023.44
74980.8 -425567 2026.51
77055.2 -425831 2027.77
78862.2 -424643 2022.11
80870.6 -424571 2021.77
82873.9 -424476 2021.31
84858.5 -424292 2020.44
86823.2 -424020 2019.14
88958.2 -424573 2021.78
91025.3 -424785 2022.78
93043.1 -424762 2022.68
94705.7 -423153 2015.01
96736.4 -423222 2015.34
98640.7 -422746 2013.08
100990 -424158 2019.8
103143 -424705 2022.4
105353 -425463 2026.01
107218 -424827 2022.98
109105 -424297 2020.46
110880 -423358 2015.99
112927 -423476 2016.55
115161 -424279 2020.38
117316 -424764 2022.69
119176 -424186 2019.93
120995 -423482 2016.58
122700 -422409 2011.47
124559 -421895 2009.02
126786 -422620 2012.48
129246 -424090 2019.48
131643 -425309 2025.28
133558 -424958 2023.61
135401 -424392 2020.92
137183 -423653 2017.39
139063 -423235 2015.4
141250 -423752 2017.86
143331 -423938 2018.75
145322 -423855 2018.36
147432 -424119 2019.62
149779 -425047 2024.03
151705 -424773 2022.73
153176 -423250 2015.47
154969 -422644 2012.59
157289 -423469 2016.52
158814 -422165 2010.31
160607 -421594 2007.59
162813 -422109 2010.04
165094 -422802 2013.34
167227 -423105 2014.79
169013 -422532 2012.06
171295 -423200 2015.24
173265 -423090 2014.71
175496 -423611 2017.19
177203 -422871 2013.67
178956 -422255 2010.74
180656 -421530 2007.29
183238 -422857 2013.6
185220 -422784 2013.26
187385 -423128 2014.89
189086 -422426 2011.55
191298 -422870 2013.66
193723 -423770 2017.95
195784 -423862 2018.39
197434 -423072 2014.63
198852 -421806 2008.6
200286 -420601 2002.86
202323 -420671 2003.19
204605 -421246 2005.93
206700 -421427 2006.8
208684 -421382 2006.58
210475 -420950 2004.52
212571 -421132 2005.39
214660 -421296 2006.17
217272 -422473 2011.77
219223 -422357 2011.22
220779 -421488 2007.08
222931 -421761 2008.38
225859 -423487 2016.6
227764 -423279 2015.61
228970 -421787 2008.51
230545 -420995 2004.74
233341 -422427 2011.56
235015 -421821 2008.67
236523 -420931 2004.43
238372 -420657 2003.13
240930 -421628 2007.75
243192 -422068 2009.85
244713 -421227 2005.84
247308 -422233 2010.63
249322 -422239 2010.66
250683 -421148 2005.47
252047 -420078 2000.37
255065 -421761 2008.39
257703 -422794 2013.31
258804 -421310 2006.24
259926 -419881 1999.43
261345 -418950 1995
263796 -419676 1998.46
265619 -419398 1997.13
267706 -419540 1997.81
270061 -420095 2000.45
272329 -420508 2002.42
273872 -419804 1999.07
274939 -418385 1992.31
277371 -419050 1995.48
279093 -418640 1993.52
281403 -419110 1995.76
283695 -419550 1997.85
286624 -420916 2004.36
287651 -419491 1997.58
289182 -418815 1994.36
290958 -418501 1992.86
293705 -419579 1997.99
295218 -418890 1994.72
297571 -419396 1997.12
298342 -417679 1988.95
301180 -418860 1994.57
302651 -418136 1991.12
304099 -417391 1987.58
305880 -417110 1986.24
308288 -417681 1988.96
310937 -418570 1993.19
311854 -417130 1986.33
314029 -417380 1987.52
315755 -417035 1985.88
317143 -416251 1982.15
318428 -415341 1977.81
321093 -416232 1982.06
323033 -416177 1981.8
325489 -416784 1984.69
327177 -416408 1982.89
328908 -416088 1981.37
330071 -415059 1976.47
330683 -413354 1968.35
332013 -412561 1964.58
334071 -412676 1965.12
336525 -413277 1967.98
337727 -412341 1963.53
339612 -412245 1963.07
342861 -413798 1970.46
344632 -413559 1969.33
345885 -412704 1965.26
348024 -412910 1966.24
351253 -414399 1973.33
351007 -411796 1960.93
353035 -411874 1961.31
355537 -412501 1964.29
357201 -412155 1962.64
358555 -411457 1959.32
360686 -411652 1960.25
363273 -412363 1963.64
364605 -411650 1960.24
365188 -410104 1952.88
366662 -409569 1950.33
367843 -408714 1946.26
370554 -409559 1950.28
372739 -409817 1951.51
373948 -409005 1947.64
374932 -407957 1942.65
377641 -408786 1946.6
379104 -408266 1944.12
382753 -410093 1952.82
386616 -412129 1962.52
389359 -412956 1966.46
388906 -410404 1954.3
388521 -407947 1942.6
389568 -407012 1938.15
391818 -407336 1939.69
395009 -408630 1945.86
395651 -407288 1939.47
400525 -410294 1953.78
400818 -408601 1945.72
403877 -409730 1951.09
403725 -407607 1940.98
404336 -406270 1934.62
402336 -402336 1915.89
402434 -400527 1907.27
409524 -405661 1931.72
411260 -405468 1930.8
410443 -402771 1917.96
409999 -400464 1906.97
413383 -401900 1913.81
416315 -402885 1918.5
418809 -403440 1921.14
421087 -403782 1922.77
419265 -400207 1905.75
420185 -399271 1901.29
425575 -402571 1917.01
421071 -396524 1888.21
0 -0 0
0 -0 0
0 -0 0
0 -0 0
0 -0 0
0 -0 0
431248 -393748 1874.99
0 -0 0
0 -0 0
0 -0 0
0 -0 0
0 -0 0
0 -0 0
0 -0 0
0 -0 0
0 -0 0
0 -0 0
0 -0 0
0 -0 0
0 -0 0
0 -0 0
0 -0 0
0 -0 0
0 -0 0
0 -0 0
0 -0 0
0 -0 0
0 -0 0
0 -0 0
0 -0 0
0 -0 0
0 -0 0
-0 -0 0
-482306 -395301 1891.39
-0 -0 0
-0 -0 0
-0 -0 0
-0 -0 0
-0 -0 0
-461476 -387343 1853.32
-0 -0 0
-0 -0 0
-462231 -392708 1878.99
-0 -0 0
-459330 -393442 1882.5
-457450 -393445 1882.51
-460884 -398036 1904.48
-0 -0 0
-0 -0 0
-0 -0 0
-0 -0 0
-0 -0 0
-0 -0 0
-0 -0 0
-0 -0 0
-444692 -398887 1908.55
-0 -0 0
-447362 -404756 1936.63
-440562 -400337 1915.49
-434638 -396678 1897.98
-436054 -399716 1912.52
-434412 -399965 1913.71
-431807 -399326 1910.65
-436024 -405018 1937.89
-433868 -404814 1936.91
-429994 -402999 1928.23
-427386 -402359 1925.16
-428690 -405413 1939.77
-429808 -408317 1953.67
-413611 -394725 1888.64
-409595 -392685 1878.88
-414289 -399015 1909.16
-418120 -404570 1935.74
-419595 -407886 1951.61
-410714 -401118 1919.23
-411582 -403853 1932.31
-0 -0 0
-0 -0 0
-406691 -404755 1936.63
-407979 -407979 1952.05
-409414 -411382 1968.34
-406350 -410276 1963.04
-402139 -407995 1952.13
-401828 -409668 1960.13
-402648 -412517 1973.77
-403805 -415740 1989.19
-396341 -410075 1962.08
-394537 -410240 1962.87
-394901 -412672 1974.51
-393696 -413479 1978.37
-390815 -412527 1973.81
-390731 -414532 1983.41
-388590 -414364 1982.6
-386561 -414314 1982.36
-383890 -413572 1978.81
-380434 -411973 1971.16
-377893 -411352 1968.19
-375203 -410562 1964.41
-374835 -412319 1972.82
-372789 -412237 1972.43
-369699 -410996 1966.49
-367394 -410617 1964.68
-365238 -410401 1963.64
-366437 -413975 1980.74
-363499 -412887 1975.54
-359790 -410907 1966.06
-357289 -410294 1963.13
-357667 -412996 1976.06
-357482 -415076 1986.01
-357227 -417097 1995.68
-354998 -416823 1994.37
-351970 -415603 1988.53
-348674 -414051 1981.1
-345454 -412571 1974.02
-345132 -414556 1983.52
-343824 -415372 1987.42
-342213 -415829 1989.61
-343276 -419559 2007.46
-343320 -422082 2019.53
-340927 -421620 2017.32
-338936 -421652 2017.48
-333755 -417694 1998.53
-329899 -415355 1987.34
-328790 -416467 1992.66
-327706 -417625 1998.21
-325102 -416849 1994.49
-323806 -417750 1998.8
-321216 -416982 1995.13
-318686 -416283 1991.78
-316472 -415992 1990.39
-316231 -418306 2001.46
-313611 -417482 1997.52
-312498 -418667 2003.19
-309962 -417949 1999.76
-307254 -416988 1995.16
-305367 -417135 1995.86
-303150 -416831 1994.41
-300496 -415918 1990.04
-298989 -416592 1993.26
-298973 -419365 2006.53
-297643 -420321 2011.1
-295639 -420330 2011.15
-294601 -421723 2017.81
-293176 -422577 2021.9
-290732 -421965 2018.97
-287110 -419622 2007.76
-284803 -419181 2005.65
-282747 -419107 2005.3
-281161 -419734 2008.29
-278724 -419089 2005.21
-276957 -419449 2006.94
-274506 -418772 2003.69
-272167 -418256 2001.23
-269897 -417841 1999.24
-268310 -418483 2002.31
-267189 -419869 2008.94
-265319 -420089 2010
-264717 -422335 2020.74
-263284 -423280 2025.26
-261278 -423311 2025.41
-257713 -420798 2013.39
-254796 -419311 2006.27
-252648 -419075 2005.15
-250836 -419398 2006.69
-250076 -421499 2016.74
-248854 -422849 2023.2
-246633 -422511 2021.58
-243816 -421137 2015.01
-241061 -419847 2008.84
-239166 -420049 2009.8
-238071 -421669 2017.55
-236162 -421862 2018.48
-233750 -421154 2015.09
-231642 -420985 2014.28
-229382 -420534 2012.12
-227154 -420134 2010.21
-225429 -420666 2012.76
-223895 -421569 2017.08
-222348 -422461 2021.34
-220068 -421965 2018.97
-217938 -421751 2017.95
-216302 -422496 2021.51
-214337 -422607 2022.04
-212456 -422888 2023.39
-210479 -422982 2023.84
-208556 -423186 2024.81
-206499 -423121 2024.5
-204275 -422708 2022.53
-202496 -423217 2024.96
-200795 -423901 2028.23
-198591 -423526 2026.44
-196114 -422556 2021.8
-193573 -421424 2016.38
-191790 -421938 2018.84
-190235 -422969 2023.77
-188307 -423184 2024.81
-185898 -422312 2020.63
-184174 -422994 2023.89
-182365 -423492 2026.28
-180524 -423927 2028.36
-177960 -422654 2022.27
-175817 -422366 2020.89
-174034 -422944 2023.66
-172462 -424052 2028.96
-170537 -424313 2030.2
-168130 -423364 2025.67
-165945 -422956 2023.71
-163980 -423108 2024.44
-161850 -422832 2023.12
-159856 -422910 2023.49
-157741 -422664 2022.32
-155603 -422351 2020.82
-153620 -422454 2021.31
-151835 -423113 2024.46
-149844 -423208 2024.92
-147657 -422744 2022.7
-145667 -422839 2023.15
-143178 -421468 2016.59
-140898 -420681 2012.83
-138928 -420810 2013.44
-137532 -422709 2022.53
-135511 -422712 2022.55
-133289 -422081 2019.53
-131174 -421775 2018.06
-129625 -423307 2025.39
-127835 -424088 2029.13
-125698 -423723 2027.38
-123428 -422891 2023.4
-121445 -423032 2024.08
-119106 -421916 2018.74
-117522 -423486 2026.25
-115314 -422818 2023.05
-113505 -423617 2026.88
-111669 -424340 2030.34
-109657 -424414 2030.69
-107751 -424907 2033.05
-105754 -425048 2033.72
-103643 -424732 2032.21
-101515 -424332 2030.29
-99662.6 -425092 2033.93
-97818.1 -425916 2037.88
-95454.8 -424469 2030.95
-93315.1 -423975 2028.59
-91499.2 -424963 2033.32
-89716.6 -426154 2039.01
-87449 -425043 2033.7
-85353.9 -424737 2032.23
-83298.8 -424621 2031.68
-81270.7 -424640 2031.77
-79094 -423863 2028.05
-77168.1 -424425 2030.74
-75032.5 -423832 2027.91
-73120.4 -424505 2031.12
-70947.1 -423655 2027.06
-68843.5 -423185 2024.81
-66647.9 -422103 2019.63
-64736.9 -422813 2023.03
-62907.2 -424116 2029.26
-60992.9 -424917 2033.1
-59028 -425409 2035.45
-56949 -425083 2033.89
-54979.7 -425583 2036.28
-52800.8 -424437 2030.8
-50612.2 -423118 2024.49
-48546.3 -422757 2022.76
-46687.9 -424251 2029.91
-44753.9 -425162 2034.27
-42588 -423852 2028
-40537.7 -423619 2026.89
-38566.4 -424230 2029.81
-36545.2 -424330 2030.29
-34512.9 -424306 2030.17
-32490.3 -424405 2030.64
-30440.2 -424134 2029.35
-28368.4 -423499 2026.31
-26379.1 -424094 2029.16
-24415.6 -425239 2034.64
-22384.4 -425304 2034.95
-20305.5 -424386 2030.55
-18294 -424828 2032.67
-16275.2 -425190 2034.4
-14244.8 -425308 2034.97
-12159.3 -423550 2026.55
-10133.6 -423583 2026.71
-8109.83 -423738 2027.46
-6090.45 -424301 2030.15
-4057.45 -424004 2028.73
-2027.89 -423830 2027.89
0 -424567 2031.42
2029.7 -424207 2029.7
4054.87 -423733 2027.43
6087.88 -424122 2029.29
8113 -423904 2028.25
10150.2 -424279 2030.04
12169.9 -423920 2028.32
14208.7 -424232 2029.82
16257.5 -424727 2032.19
18288 -424688 2032
20294.3 -424152 2029.43
22277.8 -423278 2025.25
24325.7 -423672 2027.14
26437.5 -425033 2033.65
28443.9 -424626 2031.7
30468 -424521 2031.2
32442.6 -423781 2027.66
34451.3 -423548 2026.55
36494.4 -423740 2027.47
38599.5 -424595 2031.55
40667.6 -424977 2033.38
42641.9 -424388 2030.57
44649.2 -424167 2029.51
46640 -423816 2027.83
48577 -423024 2024.04
50460.3 -421848 2018.41
52593.9 -422774 2022.84
54765.9 -423928 2028.37
56961.8 -425179 2034.35
59006.9 -425257 2034.72
61014.6 -425068 2033.82
62941.5 -424347 2030.37
64938.2 -424127 2029.32
67004.5 -424362 2030.44
69044.2 -424419 2030.71
71035.5 -424183 2029.59
73036 -424014 2028.78
75022.3 -423775 2027.63
77089.5 -423993 2028.67
78983.2 -423269 2025.21
80913.7 -422774 2022.84
82960.1 -422894 2023.42
85021.1 -423081 2024.31
87046.8 -423088 2024.34
89188.6 -423646 2027.01
91248.6 -423799 2027.75
93258.7 -423719 2027.36
95071.6 -422765 2022.8
97066.7 -422645 2022.22
99090.3 -422650 2022.25
101501 -424274 2030.02
103732 -425100 2033.97
105869 -425510 2035.93
107759 -424936 2033.19
109585 -424133 2029.35
111238 -422703 2022.5
113302 -422859 2023.25
115480 -423426 2025.96
117760 -424343 2030.35
119516 -423370 2025.69
121265 -422407 2021.08
123158 -421969 2018.99
125214 -422091 2019.57
127440 -422779 2022.86
129619 -423288 2025.3
131855 -423966 2028.54
133961 -424209 2029.71
135896 -423913 2028.29
137831 -423629 2026.93
139590 -422817 2023.05
141772 -423290 2025.31
143875 -423520 2026.41
145806 -423244 2025.09
147711 -422898 2023.44
149897 -423358 2025.64
151817 -423062 2024.22
153529 -422205 2020.12
155646 -422467 2021.37
157814 -422859 2023.25
159577 -422173 2019.97
161215 -421173 2015.18
163502 -421876 2018.54
165900 -422844 2023.18
167975 -422973 2023.79
169797 -422471 2021.39
171792 -422405 2021.08
173945 -422728 2022.62
175896 -422556 2021.8
177350 -421205 2015.34
179150 -420702 2012.93
181080 -420507 2012
183736 -421986 2019.07
185510 -421431 2016.42
187774 -421988 2019.08
189586 -421527 2016.87
191770 -421895 2018.63
193800 -421919 2018.75
195913 -422121 2019.72
197848 -421941 2018.86
199392 -420938 2014.06
200900 -419882 2009
203164 -420408 2011.52
205293 -420649 2012.68
207466 -420975 2014.24
209244 -420500 2011.96
211107 -420204 2010.55
213219 -420404 2011.5
215341 -420620 2012.54
217556 -421011 2014.41
219408 -420701 2012.92
220899 -419708 2008.17
223127 -420123 2010.16
225980 -421696 2017.68
228082 -421850 2018.42
229318 -420417 2011.56
231133 -420059 2009.85
233967 -421543 2016.95
236017 -421604 2017.24
236652 -419156 2005.53
238494 -418867 2004.15
240818 -419425 2006.82
243313 -420267 2010.85
245545 -420647 2012.67
248380 -422044 2019.35
250559 -422313 2020.64
251237 -420069 2009.9
252971 -419611 2007.71
255348 -420219 2010.62
258211 -421610 2017.27
259314 -420129 2010.19
260852 -419370 2006.55
262415 -418662 2003.17
265068 -419691 2008.09
266574 -418902 2004.32
268600 -418936 2004.48
271079 -419671 2007.99
273508 -420318 2011.09
275528 -420331 2011.15
276679 -419029 2004.92
278634 -418954 2004.56
280179 -418267 2001.28
281410 -417125 1995.81
283620 -417441 1997.33
286630 -418921 2004.41
288760 -419103 2005.28
290265 -418382 2001.83
291928 -417896 1999.5
294368 -418524 2002.51
296207 -418292 2001.4
298188 -418263 2001.26
298951 -416539 1993.01
301426 -417205 1996.2
302709 -416225 1991.51
304993 -416624 1993.42
306595 -416093 1990.88
309886 -417846 1999.26
311729 -417637 1998.26
313239 -416988 1995.16
315377 -417176 1996.06
317094 -416809 1994.3
320028 -418036 2000.17
322068 -418088 2000.42
324097 -418126 2000.6
324354 -415890 1989.9
326007 -415460 1987.85
328640 -416278 1991.76
330740 -416414 1992.41
331231 -414535 1983.42
332480 -413620 1979.05
334099 -413176 1976.92
335928 -412994 1976.05
337802 -412869 1975.45
338721 -411585 1969.31
340254 -411059 1966.79
343060 -412066 1971.61
344957 -411977 1971.18
346526 -411500 1968.9
349989 -413264 1977.34
352341 -413703 1979.44
353565 -412821 1975.22
353893 -410909 1966.07
356605 -411770 1970.19
358213 -411355 1968.2
359164 -410193 1962.65
361723 -410870 1965.89
363489 -410645 1964.81
363915 -408916 1956.53
364332 -407194 1948.3
366473 -407409 1949.33
368719 -407737 1950.9
372052 -409257 1958.17
373255 -408431 1954.22
375161 -408378 1953.96
377457 -408749 1955.74
379465 -408805 1956.01
383834 -411392 1968.38
385102 -410644 1964.81
386706 -410261 1962.97
387939 -409491 1959.29
388670 -408201 1953.11
389390 -406912 1946.95
393409 -409067 1957.26
396496 -410236 1962.85
397399 -409145 1957.63
398124 -407882 1951.59
397935 -405699 1941.14
401269 -407112 1947.91
402070 -405955 1942.37
404585 -406530 1945.12
405894 -405894 1942.07
404431 -402505 1925.86
406847 -402991 1928.19
406692 -400937 1918.36
411805 -404071 1933.36
414072 -404398 1934.92
417144 -405503 1940.2
415910 -402432 1925.51
418294 -402873 1927.62
420474 -403115 1928.78
421768 -402509 1925.88
422522 -401395 1920.55
0 -0 0
0 -0 0
421152 -394712 1888.57
421536 -393308 1881.86
0 -0 0
0 -0 0
0 -0 0
0 -0 0
427814 -390450 1868.18
430724 -391397 1872.71
0 -0 0
0 -0 0
0 -0 0
0 -0 0
0 -0 0
0 -0 0
0 -0 0
0 -0 0
0 -0 0
0 -0 0
0 -0 0
0 -0 0
0 -0 0
0 -0 0
0 -0 0
0 -0 0
0 -0 0
0 -0 0
0 -0 0
0 -0 0
0 -0 0
0 -0 0
0 -0 0
0 -0 0
0 -0 0
-0 -0 0
-0 -0 0
-0 -0 0
-0 -0 0
-0 -0 0
-468757 -388452 1867.56
-464929 -386821 1859.71
-460794 -384920 1850.58
-0 -0 0
-0 -0 0
-0 -0 0
-464018 -393942 1893.95
-450703 -384206 1847.14
-452279 -387136 1861.23
-465242 -399878 1922.49
-469564 -405267 1948.4
-471379 -408528 1964.08
-462159 -402214 1933.72
-457897 -400179 1923.94
-0 -0 0
-0 -0 0
-0 -0 0
-453811 -403387 1939.36
-455354 -406497 1954.31
-446925 -400692 1926.4
-447127 -402608 1935.62
-0 -0 0
-0 -0 0
-437558 -399176 1919.11
-437142 -400553 1925.73
-439393 -404397 1944.22
-435801 -402874 1936.89
-439550 -408154 1962.28
-430342 -401395 1929.78
-428435 -401417 1929.89
-427662 -402506 1935.12
-435143 -411408 1977.92
-433215 -411456 1978.15
-420726 -401426 1929.93
-422718 -405186 1948.01
-421244 -405642 1950.2
-417003 -403426 1939.55
-422929 -411071 1976.3
-417407 -407609 1959.66
-0 -0 0
-0 -0 0
-414164 -410219 1972.21
-410698 -408733 1965.06
-413147 -413147 1986.28
-413864 -415863 1999.34
-404062 -407985 1961.47
-401992 -407874 1960.93
-406831 -414808 1994.27
-402132 -412037 1980.95
-397452 -409257 1967.58
-392937 -406622 1954.91
-397502 -413402 1987.51
-394840 -412698 1984.12
-393306 -413170 1986.39
-391233 -413078 1985.95
-389418 -413260 1986.83
-386683 -412462 1982.99
-386523 -414416 1992.39
-384151 -414007 1990.42
-380194 -411877 1980.18
-377534 -411136 1976.62
-377741 -413528 1988.11
-373382 -410918 1975.57
-372922 -412594 1983.63
-369030 -410472 1973.42
-369849 -413595 1988.44
-369226 -415130 1995.82
-366199 -413964 1990.21
-362741 -412295 1982.19
-360529 -412033 1980.93
-361081 -414944 1994.92
-359046 -414898 1994.7
-356702 -414492 1992.75
-356020 -416023 2000.11
-353488 -415398 1997.11
-351878 -415856 1999.31
-348932 -414731 1993.9
-348189 -416226 2001.09
-346205 -416246 2001.18
-345090 -417318 2006.34
-344357 -418867 2013.78
-344064 -420973 2023.91
-342823 -421936 2028.54
-339690 -420568 2021.96
-336740 -419413 2016.41
-333700 -418130 2010.24
-330812 -417023 2004.92
-331335 -420230 2020.33
-329280 -420186 2020.12
-326539 -419260 2015.67
-323520 -417964 2009.44
-320879 -417143 2005.49
-318979 -417280 2006.15
-316735 -416967 2004.65
-315949 -418582 2012.41
-312983 -417310 2006.3
-310411 -416551 2002.65
-307381 -415164 1995.98
-305408 -415196 1996.13
-303697 -415586 1998.01
-301967 -415954 1999.78
-301060 -417469 2007.06
-300610 -419643 2017.52
-299957 -421561 2026.74
-298407 -422236 2029.98
-296537 -422464 2031.07
-295070 -423272 2034.96
-291806 -421497 2026.43
-288484 -419612 2017.37
-286243 -419285 2015.79
-284552 -419764 2018.1
-282369 -419519 2016.92
-280460 -419681 2017.7
-278449 -419692 2017.75
-276641 -420009 2019.28
-273907 -418917 2014.02
-271594 -418456 2011.81
-270122 -419294 2015.83
-268193 -419430 2016.49
-266594 -420087 2019.65
-265332 -421290 2025.43
-264051 -422482 2031.16
-261374 -421440 2026.15
-258290 -419722 2017.89
-255611 -418639 2012.69
-253901 -419139 2015.09
-252319 -419859 2018.55
-251469 -421820 2027.98
-249601 -422090 2029.28
-248091 -422976 2033.54
-245289 -421654 2027.18
-243231 -421600 2026.92
-240918 -421101 2024.52
-239545 -422248 2030.04
-237588 -422379 2030.67
-235690 -422617 2031.81
-233470 -422277 2030.18
-231050 -421566 2026.76
-228538 -420672 2022.46
-226811 -421220 2025.1
-224980 -421584 2026.84
-222874 -421435 2026.13
-220320 -420428 2021.29
-218533 -420878 2023.45
-217282 -422381 2030.68
-215363 -422598 2031.72
-213181 -422301 2030.29
-210899 -421799 2027.88
-209292 -422648 2031.96
-207483 -423103 2034.15
-205028 -422236 2029.98
-202839 -421905 2028.39
-200854 -421997 2028.83
-198923 -422203 2029.82
-196355 -421049 2024.27
-193938 -420198 2020.18
-191978 -420331 2020.82
-190777 -422144 2029.54
-188938 -422571 2031.59
-187062 -422923 2033.29
-185121 -423133 2034.3
-183035 -423014 2033.72
-180809 -422565 2031.56
-178404 -421683 2027.32
-176306 -421514 2026.51
-174575 -422229 2029.95
-172841 -422951 2033.42
-170527 -422258 2030.09
-168014 -421047 2024.26
-166381 -422041 2029.04
-164537 -422514 2031.32
-162809 -423303 2035.11
-160842 -423483 2035.98
-158908 -423756 2037.29
-156168 -421857 2028.16
-154283 -422249 2030.04
-152655 -423365 2035.41
-150669 -423501 2036.06
-148466 -423026 2033.78
-146415 -422976 2033.54
-143908 -421591 2026.88
-141657 -420923 2023.67
-139428 -420304 2020.69
-138057 -422292 2030.25
-136053 -422373 2030.64
-133961 -422179 2029.71
-132140 -422846 2032.92
-130549 -424284 2039.83
-128719 -424977 2043.16
-126412 -424091 2038.9
-124166 -423386 2035.51
-121945 -422742 2032.41
-119945 -422857 2032.96
-117802 -422463 2031.07
-115749 -422383 2030.69
-113791 -422652 2031.98
-111780 -422731 2032.36
-109907 -423345 2035.31
-107923 -423546 2036.28
-106210 -424840 2042.5
-103895 -423729 2037.16
-101685 -423011 2033.71
-99579.4 -422704 2032.23
-97603.5 -422949 2033.41
-95456 -422444 2030.98
-93465.4 -422626 2031.86
-91752.8 -424102 2038.95
-89831 -424656 2041.61
-87602.8 -423753 2037.28
-85598.2 -423915 2038.05
-83619.9 -424218 2039.51
-81691.8 -424797 2042.29
-79494 -423968 2038.31
-77526.5 -424356 2040.17
-75376.2 -423736 2037.19
-73289.3 -423449 2035.81
-71098.2 -422526 2031.38
-69112.1 -422804 2032.71
-66780.7 -420921 2023.66
-64756.1 -420914 2023.63
-62809.6 -421432 2026.11
-61019.4 -423068 2033.98
-59030.8 -423394 2035.55
-57067.1 -423927 2038.11
-55013.7 -423809 2037.54
-52883 -423064 2033.96
-50689.4 -421736 2027.58
-48678.4 -421880 2028.27
-46816.1 -423380 2035.48
-44911.8 -424621 2041.45
-42726.4 -423195 2034.59
-40691.4 -423191 2034.57
-38714.9 -423826 2037.63
-36792.3 -425155 2044.02
-34714.6 -424744 2042.04
-32621.1 -424074 2038.82
-30586.4 -424131 2039.09
-28491.2 -423298 2035.08
-26517.5 -424280 2039.81
-24473.5 -424208 2039.46
-22444.5 -424406 2040.41
-20336.1 -422991 2033.61
-18328 -423581 2036.45
-16309.9 -424057 2038.74
-14306.3 -425102 2043.76
-12227.1 -423872 2037.85
-10182.7 -423599 2036.54
-8149.18 -423757 2037.29
-6123.26 -424546 2041.09
-4085.95 -424939 2042.97
-2037.73 -423849 2037.73
0 -423824 2037.62
2037.81 -423865 2037.81
4075.63 -423866 2037.82
6120.15 -424330 2040.05
8157.74 -424203 2039.44
10217.8 -425062 2043.57
12241.9 -424387 2040.32
14301.4 -424955 2043.05
16340.4 -424850 2042.55
18393.5 -425095 2043.73
20404.6 -424415 2040.46
22411.7 -423784 2037.43
24497 -424614 2041.41
26562.7 -425004 2043.29
28638 -425479 2045.57
30624.1 -424654 2041.61
32583.8 -423589 2036.48
34535.5 -422552 2031.5
36558.7 -422456 2031.04
38654.6 -423166 2034.45
40745.7 -423755 2037.28
42750.5 -423433 2035.74
44791.4 -423482 2035.97
46820.1 -423416 2035.66
48883.9 -423661 2036.83
50774 -422439 2030.96
52830.7 -422645 2031.95
54926.4 -423137 2034.31
57183 -424788 2042.25
59142.9 -424198 2039.41
61188.3 -424239 2039.61
63118.8 -423507 2036.09
65215 -423897 2037.97
67226.3 -423729 2037.16
69251.6 -423657 2036.81
71302.8 -423742 2037.22
73337.2 -423726 2037.14
75206.5 -422782 2032.61
77319.3 -423221 2034.72
79288.2 -422870 2033.03
81276.1 -422636 2031.9
83261.5 -422400 2030.77
85266.5 -422272 2030.15
87414.8 -422844 2032.9
89313.3 -422208 2029.85
91432.9 -422623 2031.84
93527.8 -422908 2033.21
95593.3 -423051 2033.9
97690.2 -423324 2035.21
99690.7 -423177 2034.5
101856 -423721 2037.12
103931 -423874 2037.86
106011 -424045 2038.68
107930 -423574 2036.41
109912 -423366 2035.41
111735 -422563 2031.55
113759 -422532 2031.41
116270 -424282 2039.82
118400 -424606 2041.38
120168 -423642 2036.74
121818 -422304 2030.31
123907 -422502 2031.26
126087 -423003 2033.67
128270 -423494 2036.03
130319 -423538 2036.24
132354 -423531 2036.21
134589 -424159 2039.23
136531 -423857 2037.78
138457 -423517 2036.14
140276 -422861 2032.98
142362 -423018 2033.74
144509 -423349 2035.33
146171 -422271 2030.15
148290 -422524 2031.36
150104 -421913 2028.43
152429 -422737 2032.39
154176 -421957 2028.64
156606 -423039 2033.84
158741 -423309 2035.14
